ply
format ascii 1.0
element vertex 1337
property float x
property float y
property float z
end_header
0.0365955 -0.0822206 -0.103835
0.0323232 -0.080518 -0.109352
0.0334516 -0.0810049 -0.108278
0.0275667 -0.071022 -0.119199
0.0258261 -0.066846 -0.121601
0.0290186 -0.0748916 -0.116499
0.0282677 -0.0731046 -0.117938
0.0240325 0.0764825 -0.11676
0.0240691 0.0770583 -0.118221
0.0122235 -0.0279347 -0.141357
0.01394 -0.032033 -0.140718
0.0176815 0.0589115 -0.099601
-0.0407216 0.0738711 -0.108487
0.0460722 -0.0894448 -0.0861463
0.0241859 -0.103237 -0.0935507
0.0742657 0.0227689 -0.0967163
0.0575129 0.0443449 -0.0849281
-0.000995257 0.0557092 0.017386
0.0670249 -0.102642 -0.0360148
0.0214004 0.067905 -0.105569
0.0490173 0.0602034 -0.0772775
0.0495914 0.0618713 -0.0771156
0.102966 0.0359097 -0.0318114
0.0989592 0.0382512 -0.0315587
0.127143 -0.02624 -0.0413805
0.127384 -0.029146 -0.0417432
0.127228 -0.0317132 -0.0419956
0.131492 -0.0495396 -0.03971
0.075621 -0.0826267 -0.0840646
0.113045 -0.0920079 -0.0466181
0.123431 -0.0759351 -0.0425243
0.00245973 0.0560519 0.0173666
0.114761 0.0279355 -0.0298285
0.0950208 0.0404244 -0.0307391
0.0867509 0.00369156 -0.102072
0.097642 -0.0191029 -0.105836
0.0993529 -0.0240554 -0.10615
0.08856 -0.0607976 -0.0954983
0.0932185 -0.0389145 0.0581012
0.0637668 -0.0532378 0.125273
0.0603707 -0.011401 0.149101
0.0574543 -0.00401932 0.15561
0.0651364 -0.0563132 0.123273
0.120352 0.00053228 -0.0321381
0.0913145 0.0424336 -0.0307179
0.0840563 0.0307526 0.0445332
-0.0253528 0.0111044 0.152589
0.0303407 -0.0764921 -0.113492
0.124121 -0.0112432 -0.036037
0.0587771 0.0575495 0.0786402
0.0704456 0.0525495 0.129395
0.0721609 0.0475698 0.0941801
0.0186207 0.048053 0.154739
0.0830848 0.0308668 0.110618
0.0195682 0.0465194 0.155504
0.0219432 0.0417151 0.155817
0.0792006 0.0386461 0.105232
0.0657799 0.0542791 0.0854513
0.0594149 0.0706486 0.135136
0.100316 -0.009497 0.0529155
0.0117361 0.05905 0.15149
0.0213782 -0.0550243 -0.130835
0.0504732 0.0545743 -0.0796025
0.0843793 0.0253751 0.112672
0.0216893 0.0655042 0.0480628
0.0656027 -0.072948 0.069428
0.062061 0.0682144 -0.0142367
0.0631047 0.0699781 -0.0132587
0.0635076 0.0717246 -0.0135341
0.0649008 0.0767049 -0.00854398
0.12727 -0.050683 -0.034451
0.0840172 0.145834 -0.0692511
0.0516895 0.0579608 0.0736243
0.0776435 0.0342879 0.0446421
0.105409 -0.0966305 -0.0534191
0.0720636 0.0948653 0.00333151
0.118841 0.0154415 -0.030794
0.070423 0.0918528 0.00200446
0.00140823 0.106462 0.0924409
0.0167199 0.117146 0.102341
0.0108428 0.0970272 0.14429
0.00905816 0.096592 0.144629
0.0627219 0.0658107 0.133401
0.0143436 0.0553331 0.152551
0.057317 0.0771643 -0.0734639
0.0386994 0.0898657 0.141322
0.000251666 0.104192 0.0924169
0.0127539 0.117982 0.105898
0.0777907 0.125116 0.00825191
0.0724467 0.18141 -0.0260428
0.0165518 0.181034 0.0316371
-0.0107084 0.217504 -0.0577672
-0.0251881 0.026862 0.155795
0.0110206 0.217691 -0.0316847
0.0098408 0.206099 0.0111354
-0.0315329 0.200108 -0.00970706
0.0106141 0.217917 -0.066942
-0.0122242 -0.112561 -0.0733786
0.0120238 0.212976 -0.0747072
0.0558326 0.188467 -0.0722619
0.0810057 0.168487 -0.0186623
0.0587448 0.191119 -0.0350723
0.0599086 0.182673 -0.0661695
0.0605384 0.170404 -0.0582606
0.0295178 0.212126 -0.0810935
0.0306505 0.213335 -0.0879491
0.0330406 0.208583 -0.070518
0.0481054 0.194061 -0.0780308
0.0540003 0.152877 -0.111696
0.0624051 -0.0432358 0.128968
0.0459387 0.180903 -0.10238
0.0486759 0.175753 -0.105197
0.00976173 0.141952 -0.136789
0.0536664 0.131761 -0.112543
0.0261485 0.11768 -0.187176
0.0204458 0.10224 -0.185902
0.0245147 0.0884543 -0.165184
0.0596913 0.183388 -0.0681497
0.034292 0.119568 -0.144657
0.0802427 0.156008 -0.00434629
0.0348077 -0.0806633 -0.106144
0.0509287 0.105158 -0.10671
0.0525815 0.113142 -0.109616
0.0827738 0.123099 -0.0727998
0.127553 -0.0471616 -0.0358029
0.0226127 0.0781779 -0.152326
0.0193585 0.104954 -0.187868
0.0179768 0.108508 -0.191015
0.0232824 0.0944757 -0.175342
0.00662181 0.136194 -0.179939
0.0132105 0.175361 -0.139464
0.0803269 0.0365815 0.106912
0.0600886 0.181651 -0.0652039
0.0303163 0.121149 -0.172503
0.0134699 0.200171 -0.0989878
0.0102823 0.219087 -0.0580734
0.016062 0.204411 -0.08889
0.03165 0.211317 -0.0761565
0.0441453 0.198356 -0.0797873
0.0566371 -0.102371 -0.0421443
-0.0127489 0.21751 -0.054565
0.0111749 0.219817 -0.0492455
0.00967086 0.216665 -0.0238364
0.0397453 0.205376 -0.0835889
0.040792 0.201256 -0.0588482
0.0406274 -0.084078 -0.097826
-0.043142 0.215343 -0.0811498
-0.0493277 0.212466 -0.0798213
-0.00792862 0.215174 -0.0623881
-0.00680103 0.214071 -0.0643124
-0.00605308 0.21334 -0.0652214
-0.0517249 0.211216 -0.0792482
-0.0545308 0.209957 -0.0786367
0.0152546 0.119475 -0.193624
0.00671438 0.139556 -0.159612
0.00610096 0.137986 -0.17385
-0.0250021 0.130105 -0.183223
0.0542346 0.189332 -0.0728077
0.0803229 0.170081 -0.0210339
0.0530757 0.189878 -0.0742856
0.0744174 0.178742 -0.0255896
0.0568458 0.187423 -0.0711226
0.0109272 0.131408 -0.191318
-0.0128001 0.101192 -0.188491
-0.00927725 0.216466 -0.0600093
-0.014816 0.0988141 -0.186002
0.129548 -0.0647962 -0.0408354
-0.0138371 0.0994847 -0.187397
0.0343272 0.117922 -0.136909
0.0329958 0.123656 -0.165156
-0.0462858 0.214106 -0.0805226
0.0323581 0.122969 -0.16745
-0.0238623 0.0818043 -0.167792
0.00740608 0.0288273 -0.116887
-0.024936 0.0772343 -0.154704
0.0220923 0.0981843 -0.181003
0.0210318 0.0995855 -0.183122
-0.0390641 0.0837883 -0.11525
-0.0658687 0.0819158 -0.0842745
0.0482139 0.196993 -0.0436042
0.00898467 0.13409 -0.187469
-0.0656386 0.0852946 -0.0851708
0.0216583 0.0771087 -0.147394
0.0697976 0.0994671 -0.0768204
-0.0619339 0.125083 -0.105375
-0.0213586 0.0906049 -0.178323
-0.0661457 0.117246 -0.104052
-0.0511559 0.149144 -0.107284
-0.0544612 0.140674 -0.107079
-0.0236415 0.0858222 -0.172615
0.0060574 0.139217 -0.169238
-0.0732792 0.19579 -0.0722785
-0.080972 0.179761 -0.0670445
0.0296765 0.0687648 0.0484461
-0.0342637 0.219077 -0.0829747
-0.0365712 0.217823 -0.0824452
0.124787 -0.0144201 -0.0373933
-0.0825846 0.169648 -0.0648709
-0.0240626 0.120211 -0.191382
0.0137537 0.183221 -0.136083
0.013629 0.186901 -0.132639
-0.0650939 0.119322 -0.104435
-0.0799577 0.141183 -0.0579355
-0.0189106 0.207824 -0.0407246
-0.0353314 0.204674 -0.0467931
-0.018723 0.208449 -0.0418091
-0.0775063 0.187387 -0.0492523
0.025564 0.117625 -0.185104
0.0189711 0.107727 -0.189447
-0.0540679 0.20434 -0.0491041
-0.0609132 0.201099 -0.048981
-0.0491674 0.204418 -0.0486793
0.0557127 0.0543068 0.0508691
-0.0614068 0.203358 -0.0760281
-0.0483745 0.146157 -0.00329202
-0.0122876 0.217499 -0.0552982
0.0542652 0.142733 -0.111919
0.054202 0.144394 -0.112006
-0.079641 0.1357 -0.0567909
0.011479 0.219383 -0.0439439
-0.0159615 0.214578 -0.0484014
0.0114525 0.219613 -0.0465044
0.0236569 0.0938726 -0.17375
-0.0426509 0.175164 0.0103923
-0.0429672 0.17342 0.0103549
-0.0814718 0.154486 -0.0614585
0.010416 0.202703 0.0179718
0.0116077 0.197779 0.0232516
0.0600082 -0.00825645 0.151729
-0.0433088 0.163423 0.00934914
-0.0490602 0.136171 -0.00216071
0.0977354 -0.0249154 0.054953
-0.048833 0.140388 -0.00290716
-0.0485464 0.154956 -0.105868
-0.0527807 0.0822774 0.0964285
-0.0795621 0.138608 -0.0574275
0.0539295 0.146352 -0.111648
-0.0455218 0.155702 0.00309998
0.0842529 0.13261 -0.0705499
0.0213994 0.0437487 0.155797
-0.0730693 0.191998 -0.0492554
0.00680248 0.130365 0.0418335
0.0074441 0.110444 0.0946627
0.0076803 0.116304 0.114455
0.00814006 0.115981 0.11538
-0.0470484 0.151072 -0.00178427
-0.0464275 0.153537 0.000275873
-0.0467441 0.152839 -0.000367578
0.0132334 0.197059 -0.11091
0.0359122 0.0681571 0.0487281
0.0377341 0.067876 0.0486339
-0.0418219 0.0953403 0.133134
0.0110576 0.216304 -0.0703353
-0.0435496 0.0937486 0.133204
-0.0502485 0.0829434 0.0948506
0.0105028 0.21826 -0.0652404
0.00619759 0.115743 0.112256
0.00920045 0.112445 0.0954863
0.0791202 0.132474 0.00805661
-0.00320216 0.0868819 0.0325861
-0.00285365 0.0889636 0.0335894
0.0756634 0.107791 -0.0756838
0.0743446 0.105691 -0.0759543
-0.00388396 0.0797162 0.0308139
0.0611596 0.173841 -0.0595717
-0.00166626 0.0946626 0.0343662
-0.0462854 0.100633 0.00152431
-0.0674365 0.0827803 -0.0494148
-0.0443368 0.0900877 -0.00188537
-0.0476706 0.147714 -0.00289344
0.0539946 0.138457 -0.111768
0.0118672 0.0997944 0.139326
-0.0322213 0.0551685 -0.0153426
-0.0342444 0.0601709 -0.0118107
-0.00912915 0.0559267 0.0372114
-0.00857461 0.0547869 0.0350613
-0.03977 0.0715996 -0.00758727
-0.0422284 0.079357 -0.00515138
-0.00361688 0.08185 0.0309381
-0.0417273 0.0771311 -0.00568997
0.0133503 0.177631 -0.13844
-0.0341168 0.0554175 -0.0177042
-0.0467791 0.159138 -0.104805
-0.032181 0.0546432 -0.0160044
-0.0322752 0.05447 -0.0168671
0.0560009 0.0614665 -0.0230936
-0.0325561 0.0570342 -0.0135467
0.109156 0.0324324 -0.0308184
0.0488886 -0.0918721 -0.0781838
0.0686802 -0.0902277 -0.0813871
-0.0203756 0.0586967 0.0661581
0.061232 -0.0345412 0.133355
0.0246587 0.0675566 0.0488544
-0.0184979 0.209093 -0.0430268
0.0319297 0.068353 0.048266
0.098723 -0.0195118 0.0544744
-0.0142484 0.0551871 0.0472142
-0.0181129 0.0536295 0.0507319
0.0345736 0.120961 -0.14739
-0.0108414 0.0763087 0.0836161
0.0697096 0.041386 0.0476773
0.0668904 0.043513 0.0484443
0.0689948 0.0504579 0.0899221
0.00298213 0.0697028 0.148754
0.0525594 0.0701392 -0.0730782
0.00610264 0.116206 0.113585
-0.0154419 0.111528 0.13451
9.55639e-05 0.0989428 0.0362827
-0.0468923 0.0895081 0.133062
-0.0121925 0.101876 -0.188942
0.0400283 0.0663862 0.0489754
-0.0441358 0.0882977 -0.00256562
-0.000619372 0.101926 0.0922469
-0.0658456 0.075971 0.10991
-0.0426784 0.0556474 -0.00205484
0.0832838 0.00933407 -0.10053
0.0615998 -0.0389888 0.130995
0.0591014 0.184507 -0.0692565
-0.0400698 0.0965809 0.13306
-1.15335e-05 0.0728329 0.148568
-0.000673413 0.0740153 0.148414
0.0158736 0.204762 -0.0886574
0.129644 -0.0572237 -0.0341093
0.0242348 0.085362 -0.162344
-0.0233151 -0.0261284 0.14291
-0.0162075 0.0626962 0.0728355
0.00648457 0.11534 0.111098
0.0496586 0.174045 -0.106525
-0.019414 0.0524576 0.052625
-0.0233401 -0.0292638 0.142036
-0.0251218 0.0358446 0.156191
0.0589889 0.0652899 -0.0181628
0.0184852 0.0245478 0.165229
0.0437703 0.0800729 -0.0911614
0.0258836 0.0305677 0.157363
-0.060701 0.0501366 0.132406
-0.0518851 0.0102274 -0.130031
-0.0980103 -0.019893 0.0976922
-0.0542539 0.0604595 -0.0791531
-0.0984802 -0.0239934 0.0961244
-0.052181 0.01717 -0.127057
-0.0212849 0.0543463 0.0611061
-0.0243527 -0.0723763 0.107507
0.0672278 -0.0616207 0.119084
0.115557 -0.0886384 -0.045076
0.0813255 -0.0699108 -0.0892
0.0680397 -0.064634 0.116051
-0.0833312 -0.0664638 0.0288208
0.0446533 0.197165 -0.0795382
-0.0232922 -0.0434238 0.135749
-0.000946967 0.0961479 0.0350642
-0.0894824 -0.0437756 0.0874965
-0.0232962 -0.0401072 0.136923
-0.0831797 -0.05195 0.0829928
-0.0713988 0.061689 0.119248
-0.062472 0.0774539 0.108322
-0.0624291 0.0201926 0.132072
0.0719872 0.0497475 0.128876
-0.0388435 0.191968 0.00471268
0.0595741 0.0826787 -0.0744124
-0.0237101 -0.016577 0.144569
-0.0539679 0.142897 -0.107878
-0.0253177 0.00314566 0.149052
-0.0739744 0.0240324 0.0981805
-0.0256311 -0.0747546 0.101811
-0.0670452 0.115064 -0.103128
-0.0988002 -0.0424536 0.0386533
-0.094811 0.00947117 0.0364453
-0.0549101 0.138918 -0.106567
-0.0974351 -0.015781 0.0982676
0.0296379 0.0167846 0.1532
-0.0394747 0.203082 -0.0477027
0.0508626 0.101672 -0.10547
-0.0219542 0.0534855 0.058064
-0.079839 0.181939 -0.0677708
-0.0860631 -0.0469238 0.0849659
-0.101663 -0.00895683 0.0395656
-0.0879908 0.162125 -0.0467585
-0.00617375 0.0521832 0.0296767
0.0516744 0.166251 -0.108464
-0.0894322 -0.0884045 -0.063931
-0.0868631 -0.0894318 -0.0648047
-0.0776895 -0.0922812 -0.0674722
0.0156319 0.118663 -0.192895
-0.0428101 0.0537093 0.0836703
-0.123104 -0.0158181 -0.0485288
-0.0960608 -0.0840062 -0.0620776
-0.0786844 0.114855 -0.051389
-0.0253205 0.00858704 0.151525
0.0137198 0.124316 -0.194582
-0.00972634 0.0563054 0.0427992
-0.0844074 0.0134842 0.0978066
-0.070651 0.00960682 -0.103664
-0.126407 -0.0323039 -0.050391
-0.0577157 0.00518928 0.12736
-0.126791 -0.0368482 -0.0506656
-0.108212 -0.0754412 -0.0591825
-0.0716749 0.00445461 -0.105459
-0.0804999 0.0473915 0.0188646
0.0101444 0.117684 0.106188
-0.0563482 0.0642508 -0.0759817
-0.0573383 0.0656333 -0.0763339
0.0672071 0.0583875 0.130999
-0.0655619 0.0790755 -0.0497795
-0.0599528 0.0615194 -0.0493982
0.0857897 -0.0630398 -0.0933392
-0.0720716 0.00248738 -0.105354
-0.0772778 0.189476 -0.0701725
-0.0874773 -0.060368 0.0311061
-0.0675652 0.195922 -0.0488867
-0.0784325 0.186125 -0.0692208
-0.0456261 0.154763 0.00207643
-0.0268277 -0.0767691 0.0972506
0.0505623 0.172374 -0.107431
0.0537094 0.0579077 -0.0259602
-0.0787966 0.119699 -0.0528414
-0.0779992 0.111985 -0.0509951
-0.0590228 0.0436646 -0.0871427
-0.0226763 -0.110538 -0.0727236
-0.0275993 -0.109211 -0.0724132
-0.0269295 0.0729945 -0.145885
0.0392462 0.203028 -0.0609172
0.0145385 0.0511307 -0.0968131
0.0134537 0.0490859 -0.0978163
0.018852 0.108782 -0.190347
-0.0773854 0.0493012 0.0174917
0.0967777 -0.0976101 -0.0607668
-0.0554934 0.0631067 -0.075782
-0.0244516 0.0806645 -0.165804
-0.0059543 0.0727379 0.0295704
0.0132386 0.197833 -0.108679
0.0051041 0.00367257 -0.138683
-0.0394463 0.190263 0.00601604
0.00698656 -0.00818092 -0.140945
0.122606 -0.00699646 -0.0344245
0.0895791 -0.00183223 -0.103351
0.0951339 -0.0132414 -0.105076
-0.00292412 0.0527778 0.0279258
-0.0289761 0.104525 0.132978
0.0225183 0.0711315 -0.108108
-0.00280124 -0.111872 -0.0737079
0.0123898 0.0452984 -0.0984218
-0.0181114 0.0604507 0.0700425
0.0219661 0.0692074 -0.10641
-0.000452415 0.0975751 0.0357224
-0.0596267 0.0398645 -0.0882877
-0.0272358 0.0725606 -0.144499
-0.099084 -0.00328155 0.038942
-0.0375714 0.0856857 -0.119283
-0.0276892 0.0724134 -0.142969
-0.0263169 0.0751097 -0.148065
0.0112891 0.151412 -0.139566
-0.0291478 0.0761371 0.154769
-0.0684616 0.0202455 -0.101692
-0.0887474 0.0199128 0.0319372
-0.0670118 0.0222904 -0.0994886
-0.0262064 0.135381 -0.159005
0.083469 0.129738 -0.0706181
-0.0694102 0.0171764 -0.102847
-0.0529712 -0.0108798 -0.129557
0.00642079 0.0953812 0.144546
0.054595 0.0596161 -0.024438
-0.0798148 0.133255 -0.0560568
0.0111324 0.0605132 0.150758
-0.126175 -0.0461235 -0.0521228
-0.0234107 -0.0199941 0.144052
-0.0665347 0.116031 -0.103443
-0.0624201 0.031413 -0.0924768
0.0160289 -0.0373548 -0.138038
-0.0458192 0.0981714 0.000674786
-0.0522299 0.018371 -0.125993
-0.017582 0.110224 0.134181
-0.0861113 -0.0474046 -0.111958
-0.0513675 0.00437747 -0.12934
-0.0520174 0.0115561 -0.129725
0.0348248 0.122091 -0.150066
-0.0606819 0.0355353 -0.0897616
-0.122374 -0.0132211 -0.0480881
-0.0795806 -0.0168462 -0.111453
-0.114241 -0.0690198 -0.0576441
0.0113847 0.102827 0.137191
0.0673595 -0.0717971 0.0675269
-0.044588 -0.101911 -0.0716566
-0.0632368 0.122833 -0.105171
0.0645342 0.0352213 -0.0906683
0.00804198 -0.0125807 -0.141035
0.0175965 -0.0431609 -0.136125
0.0327264 0.209839 -0.0716191
-0.0493014 0.0382342 -0.0980479
0.0604343 0.0847771 -0.0748196
0.0236658 -0.0602604 -0.125834
0.0102467 0.218969 -0.0606033
0.0914038 0.0260182 0.0496669
-0.0158359 0.098078 -0.184562
0.0188543 0.0608504 -0.0997385
0.0219795 0.077416 -0.150189
0.0782425 0.128917 0.00806316
0.0058953 0.066925 0.149443
0.0530056 0.159795 -0.110404
-0.0176486 -0.111509 -0.0729748
0.0767718 0.0185162 -0.0977664
0.119117 0.00833489 -0.0325503
-0.0636156 0.0262647 0.131713
0.0133419 0.199656 -0.10089
0.0120174 0.141728 0.0432348
-0.0791011 0.117055 -0.051891
0.00778572 0.133271 0.0421667
0.0246085 0.0899851 -0.167093
-0.106286 -0.0785709 -0.0595233
-0.0822577 0.172029 -0.0654097
0.0573379 0.0631319 -0.0228942
0.126301 -0.023264 -0.0409388
0.00677062 0.109156 0.0939867
-0.0697519 -0.0808636 0.021005
0.0602246 0.177876 -0.0621033
0.125599 -0.0204912 -0.0402379
0.0216427 -0.102822 -0.0959286
0.00863116 0.136249 -0.135595
-0.0519434 -0.00594364 -0.129515
-0.0681382 0.111607 -0.1018
-0.0760248 0.191992 -0.0709093
0.100976 0.00856693 0.0509108
0.0534841 0.128157 -0.112063
0.0637221 0.0751669 -0.00977092
0.050341 0.0640906 -0.073854
-0.0248447 0.0779973 -0.156231
-0.00844354 0.0521811 0.0319991
-0.0242979 0.0798914 -0.164281
-0.0558521 0.0569194 0.00410407
-0.0460065 0.0555039 -0.000653029
-0.0819312 0.127292 -0.040062
-0.0814109 -0.0227802 -0.112222
-0.0267211 0.0736756 -0.14694
0.060215 0.179514 -0.0629791
0.0524211 0.163776 -0.109052
0.0554287 -0.10185 -0.0476443
0.0490758 0.0506252 -0.0372771
-0.0244072 0.0781449 -0.158569
-0.0403012 0.0765342 -0.110359
0.044504 -0.0870221 -0.0892211
0.029958 0.212563 -0.0821371
0.0107288 0.215781 -0.0140057
0.0222036 0.0776169 -0.151051
-0.0598772 0.0384547 -0.0885341
-0.113601 0.0105457 -0.0457902
-0.083319 -0.0315358 -0.112943
-0.0771141 0.106671 -0.0501889
0.015605 0.115975 -0.192833
-0.051566 0.204304 -0.0488614
-0.0232014 -0.0559354 0.128355
0.0529889 -0.0964997 -0.0635937
0.0799419 0.135007 0.00767743
0.120628 -0.00300012 -0.0333417
-0.0293786 -0.0801214 0.0927889
0.00554243 0.0566635 0.0170194
0.0132517 -0.110774 -0.0760539
0.053068 0.118793 -0.110987
-0.0354633 0.0554945 -0.0192388
0.0521325 0.111479 -0.108687
-0.0547361 0.0590548 -0.0799442
0.0588348 0.0808033 -0.0741383
-0.00879772 0.215963 -0.0608148
-0.0260381 0.135274 -0.155498
-0.0421795 0.177064 0.00992173
-0.0251249 0.133216 -0.145561
-0.0560178 0.0815983 0.0999548
-0.122683 -0.0553507 -0.0541126
-0.0207842 0.0567414 0.0654104
-0.00768883 0.0785269 0.0862255
-0.0824246 0.174204 -0.0658489
0.0847484 0.135631 -0.0701752
0.0105216 0.21425 -0.00976772
-0.0176311 0.0611281 0.0714776
0.0225296 0.0957093 -0.17737
0.0809545 0.143648 0.00545372
0.0808315 0.150066 0.00198087
-0.0611185 0.126166 -0.105364
-0.098252 -0.0282976 0.0948221
0.132409 -0.0539957 -0.0398794
-0.0431706 0.164303 0.00962104
-0.0436018 0.190961 -0.104649
0.0425416 0.0877196 0.140683
-0.0471682 0.0810873 0.091497
-0.120389 -0.00713887 -0.0478207
0.0135203 0.188201 -0.13077
0.0541353 0.140789 -0.111607
0.0430176 0.0638683 0.0495199
0.0136671 0.116123 0.0978833
-0.0584079 0.0495269 -0.0839635
0.0195306 -0.105054 -0.0962511
0.00296229 0.106038 0.0370818
0.0335686 0.207237 -0.0689009
-0.049347 0.138078 -0.00238029
-0.0239067 0.0791506 -0.162421
0.0164471 0.116998 0.103198
0.068344 0.0561487 0.13026
-0.0656984 0.0247025 -0.0974755
0.0813917 0.148282 0.00343876
0.017714 0.0495833 0.153887
0.0522159 0.0577561 0.050829
0.0603002 0.16702 -0.0571512
0.00397661 0.120282 0.0397346
0.0463369 0.0620586 0.0497725
-0.00677276 0.0691225 0.0306466
-0.0828355 -0.0286183 -0.11285
-0.0436885 0.16019 0.00800129
-0.0766528 -0.055447 0.0784374
0.110173 -0.0947822 -0.0483972
0.0874633 -0.0531472 0.0607922
0.0206678 0.0450702 0.155832
-0.0447848 0.0528167 -0.0999654
-0.0471374 0.149736 -0.00235035
0.0281366 0.02231 0.152869
0.128335 -0.0546659 -0.0340237
0.0239982 0.0774963 -0.119801
0.0734793 -0.0976457 -0.0053135
0.0724147 -0.0985003 -0.00904651
0.12463 -0.0729908 -0.0419206
-0.123508 -0.0186577 -0.0489745
0.0215955 0.161024 0.0402882
0.0205718 -0.0514109 -0.132749
-0.0777515 -0.0117356 -0.109867
0.0242114 0.0915807 -0.169509
-0.0167484 0.0692525 0.0766067
-0.0165646 0.0673614 0.0759162
-0.00628458 0.0711091 0.0303829
0.064086 0.0912219 -0.0758973
0.0648896 0.092332 -0.0760415
0.0577777 0.186659 -0.0705034
-0.0682254 0.0348328 0.0945274
0.0540084 0.0718872 -0.0731564
0.0561509 0.075319 -0.0733026
-0.0643607 0.120283 -0.104373
0.0481135 0.0902775 -0.0996804
0.0552557 0.073709 -0.0732196
0.118053 0.0120843 -0.0327694
0.000247347 0.0558041 0.0172218
0.081198 0.146295 0.00481205
-0.073745 0.051496 0.0145016
0.0574831 -0.10191 -0.0398779
-0.126322 -0.030151 -0.0498285
-0.0320771 -0.107523 -0.0721648
0.0494799 0.196332 -0.0419661
0.0226726 0.0393631 0.156171
0.0678923 -0.100361 -0.0310458
0.0161172 0.0616722 0.0473446
0.101672 -0.000899828 0.052313
0.0771524 -0.0948637 0.0129835
-0.0302734 0.0814321 0.155792
0.101054 -0.00450865 0.053241
0.106876 0.0341151 -0.0313236
0.101414 0.00329104 0.0510473
0.100007 -0.0970759 -0.0584392
0.0897875 -0.100216 -0.0643207
0.0491873 0.0941492 -0.101899
-0.0232275 -0.0528796 0.130194
0.0859218 -0.10206 -0.0657391
0.0674376 0.0518692 0.0879232
0.0685597 -0.102115 -0.0247403
0.0536493 0.0778292 0.137497
0.0516273 0.0802595 0.138334
-0.0444712 0.158594 0.00623708
-0.0453559 0.157457 0.00464536
0.0760293 0.175658 -0.024678
0.00743015 0.115894 0.109108
-0.0164732 0.213747 -0.047735
-0.0651037 0.197503 -0.0487491
-0.0637733 0.201397 -0.0751807
0.015465 0.0534799 0.152884
0.0343077 0.206149 -0.0674098
0.0151756 0.202601 -0.089689
0.00524378 0.0198528 -0.127453
0.0606106 0.176596 -0.0609639
-0.102032 -0.0130734 0.0396574
-0.0254274 0.0214095 0.154303
0.0451969 0.198434 -0.0479183
-0.00525557 0.0779619 0.0305796
0.0536506 0.133807 -0.112503
0.0614615 0.160476 -0.0547364
-0.0712909 0.0669941 0.117341
0.0197722 0.153716 0.0429824
0.0207931 0.101315 -0.184395
-0.0253681 0.018657 0.154196
-0.0928569 -0.00567593 0.0981712
-0.0786066 -0.0142945 -0.110527
0.0400908 0.202123 -0.0600294
0.0870036 0.0275419 0.0458141
0.010088 0.216679 -0.0287355
0.0613291 0.0487743 0.0498094
-0.0201486 0.202987 -0.03184
0.048583 0.092145 -0.100761
-0.045456 0.0957169 -8.89301e-05
0.0244623 0.0339348 0.156345
0.0403096 0.203154 -0.0823481
-0.0176951 0.0654627 0.0743915
0.0409791 0.202 -0.0819369
0.00591868 0.138496 -0.171553
0.0189985 -0.0474598 -0.134576
0.0580119 0.0788889 -0.0739066
0.0156595 0.203413 -0.0890885
-0.00667967 0.0869496 0.0908268
-0.0611717 0.0342627 -0.0906022
-0.045904 0.153922 0.00100218
-0.0859783 -0.0755089 -0.0939913
0.030662 0.210934 -0.0773769
-0.00859634 0.21922 -0.0846004
0.0355814 0.118911 -0.134229
0.0609125 0.161811 -0.0553723
0.0313681 -0.0781233 -0.110865
-0.0280705 0.0725497 -0.141277
-0.00988107 0.219621 -0.085371
-0.0118426 0.220514 -0.0857587
-0.013837 0.221326 -0.0857038
0.0099724 0.208858 0.00403343
-0.00671352 0.0519761 0.0305828
-0.0298119 0.201393 -0.0130908
-0.0309396 0.0606147 0.0710142
-0.0588424 0.0796694 0.103552
0.0508759 0.168547 -0.107896
0.017778 0.113421 -0.191636
-0.0624931 0.0561787 0.00786722
-0.0591653 0.0471599 -0.0493691
-0.0708022 0.00815421 -0.103837
0.0273634 0.119376 -0.180566
0.0713683 0.101763 -0.0769449
0.0111475 0.130062 -0.192426
0.0129589 0.0571259 0.152013
-0.0846072 0.173416 -0.0481086
0.0116478 0.128887 -0.193263
-0.0663848 -0.0959457 -0.0697475
0.00911293 0.138958 -0.135896
-0.0562349 0.0766492 0.132793
-0.0463503 0.160894 -0.105064
0.0741883 0.102352 0.00667499
-0.0654601 0.0933645 -0.088721
0.060916 0.0681983 0.134288
0.0494367 0.0575223 0.072306
0.0525979 0.161962 -0.109479
-0.0802286 0.14376 -0.0587895
-0.0118192 0.0545627 0.0448834
-0.0803806 0.146336 -0.0595084
-0.00910756 0.0561851 0.0390673
-0.0260395 0.13428 -0.166066
0.0611373 0.175118 -0.0602589
-0.0332298 0.198095 -0.00621837
-0.0205718 0.0920055 -0.179616
-0.0555419 0.137198 -0.10615
0.00966693 0.21072 -0.000117227
-0.0514498 0.0060529 -0.129933
0.064288 0.0635827 0.132662
0.0109381 0.148856 -0.138788
-0.0636845 0.072987 -0.0495196
0.00956803 0.140891 -0.136295
0.0128298 0.21008 -0.0768821
0.019169 0.106385 -0.188525
-0.0855995 0.0336424 0.0233448
-0.0299179 0.0787253 0.154564
-0.0647711 0.0386224 0.0917785
0.0530086 0.116802 -0.110782
-0.0587502 0.0454274 -0.0857533
-0.0615569 0.0443653 -0.0493279
-0.049693 0.152117 -0.106627
0.00630961 0.13677 -0.178037
0.0138964 0.122152 -0.194626
-0.0713878 0.00579217 -0.104982
-0.0641025 0.0757875 -0.0496917
0.0297149 0.21168 -0.0802852
-0.0589237 0.202805 -0.0492055
-0.00678707 0.0846005 0.0896318
-0.0423946 0.192907 -0.103759
0.00109136 0.100499 0.0366217
-0.0154777 0.071127 0.0774652
-0.0200949 0.203691 -0.032737
-0.10038 -0.0373662 0.0395945
0.0538102 -0.0978265 -0.0591095
-0.0425759 0.0813839 -0.00469198
-0.0191446 0.205039 -0.037566
0.0756063 -0.0960599 0.00361251
-0.0832142 0.176494 -0.0484188
0.00857675 0.116678 0.108352
-0.0435498 0.161069 0.00836663
0.0631395 0.0898143 -0.0758382
0.0530895 0.120869 -0.111014
-0.0792123 0.125581 -0.0539814
0.0609236 -0.0216271 0.139461
0.0460751 0.0577655 0.0702296
0.0139109 0.143859 0.0434983
0.0337742 0.123837 -0.1624
-0.0472534 0.15765 -0.10477
-0.0456417 0.16535 -0.105111
-0.0587292 0.0428861 0.0893444
-0.0507263 0.0339851 -0.0986159
-0.0752326 0.189899 -0.0492576
-0.026045 0.130675 -0.137382
0.0457983 0.0837751 -0.0945792
0.0813141 0.0347068 0.108212
0.00980982 0.204144 0.014391
0.0092548 0.113894 0.117667
0.0658562 -0.0723527 0.0704772
0.0511427 0.167379 -0.108013
0.0716288 -0.0992762 -0.0134332
-0.0202483 0.202423 -0.0309576
-0.0805308 -0.0197725 -0.111966
0.0521299 0.165118 -0.10879
0.0611611 0.0566022 0.0808279
-0.0841476 0.0380201 0.0214082
0.0070021 0.115458 0.109845
-0.0663989 0.023285 -0.0984243
-0.0865014 0.0306968 0.0262226
-0.065661 0.0948681 -0.0897125
-0.0254551 0.0403427 0.15566
-0.0629441 0.198949 -0.0487173
-0.124588 -0.0242494 -0.0490868
-0.076019 0.102248 -0.0494754
-0.0575157 0.0525922 -0.0498106
-0.00347247 0.0853017 0.0316011
-0.0481404 0.11694 0.000497032
-0.0626743 0.124049 -0.105378
-0.0542112 -0.0148627 -0.128669
-0.0297987 0.0827864 -0.120575
0.0835281 0.1263 -0.0721036
0.0230489 0.0795391 -0.153908
0.0816454 0.151756 -0.0677249
-0.0233252 -0.0230619 0.143563
-0.0322358 0.0560296 -0.0144797
-0.0479258 0.156094 -0.105265
0.0833081 0.148703 -0.0690729
-0.038475 0.0850775 -0.116335
-0.0816772 0.156991 -0.0621159
-0.0732816 -0.000962004 -0.105956
-0.0797404 0.130605 -0.0551336
-0.0480016 -0.100119 -0.0717838
-0.0597742 0.128568 -0.105526
0.00389324 0.094727 0.14313
0.0599358 0.180871 -0.0635195
-0.0603632 0.127363 -0.105448
-0.0587393 -0.0966888 -0.0710443
0.0455172 0.181913 -0.101697
-0.0488451 0.13303 -0.0017541
0.074508 0.0363119 0.0456032
0.0779656 -0.0786611 -0.0857155
-0.00767058 0.0824769 0.0884805
0.0517734 0.191853 -0.0758799
0.00281504 0.111605 0.0380342
-0.035188 0.196353 -0.00200525
0.0583303 0.185741 -0.0696834
0.0145682 0.201669 -0.0906254
-0.0590539 0.0568076 0.00605269
-0.115137 0.00777142 -0.0461669
-0.0525567 -0.00932606 -0.129802
0.0469254 0.197932 -0.0457544
-0.0857914 0.169926 -0.047744
-0.0198063 0.20469 -0.0347915
0.0568743 0.192106 -0.036393
-0.0481985 0.142706 -0.00356516
-0.100153 -0.0830521 -0.0611514
-0.0982016 0.00024513 0.0381442
0.0356393 0.205297 -0.0665141
-0.00645978 0.0842874 0.143822
0.0690738 -0.0669514 0.113218
-0.0836412 -0.0345944 -0.112772
-0.100172 -0.0059976 0.0394392
0.0153429 0.211313 -0.0789896
-0.0191003 0.20593 -0.0385086
0.0388513 0.209789 -0.0838758
-0.0859447 0.0360951 -0.0478767
-0.00498823 0.0799394 0.14444
-0.0819412 0.161786 -0.0632684
-0.00598708 0.0820086 0.144206
0.0341755 0.117843 -0.137824
0.0427621 -0.085751 -0.0932806
0.0123935 0.211277 -0.0758357
0.00818261 0.0639003 0.150534
0.0994024 -0.0144266 0.054369
-0.0466382 0.104635 0.00186786
0.00974162 -0.110497 -0.0750387
-0.0870693 0.00939607 0.0987446
-0.0282033 -0.0783982 0.0942065
0.0158319 0.117736 0.105041
0.0277304 -0.103077 -0.0915376
-0.024057 -0.0106213 0.145912
0.0702163 0.0897956 0.00104766
0.0274302 0.0265747 0.155707
-0.0019677 0.0752988 0.147892
-0.0506125 0.0856249 0.132903
0.115948 0.0260663 -0.0299582
0.0989307 0.0158464 0.0500792
-0.0483448 0.141291 -0.00338617
-0.108116 0.0207229 -0.0455645
0.00185969 0.103707 0.0364732
-0.0454276 0.167078 -0.105397
-0.0616763 0.0325932 -0.0911623
-0.0686847 0.0862202 -0.0495843
0.118248 -0.0849218 -0.0436991
-0.0471757 0.10725 0.00208307
0.0805345 0.117474 -0.07291
-0.0191048 0.109019 0.133931
0.108095 -0.0962011 -0.0507566
-0.071133 0.0301275 0.0965104
0.0399232 0.206869 -0.0841078
-0.0205786 0.108517 0.133761
0.0795826 -0.0744042 -0.087662
0.00554853 -0.000288453 -0.139969
-0.0653454 0.0317849 0.130519
0.0300121 0.211124 -0.0787316
-0.00669915 0.0919591 0.145413
-0.00766704 0.0801473 0.0873814
0.0738287 0.107836 0.00674493
-0.0746885 0.194111 -0.0716205
-0.117201 -0.0651768 -0.0569784
-0.101845 -0.0329038 0.0402403
-0.102506 -0.0298997 0.0407721
0.0608813 0.162892 -0.0560512
-0.118418 -0.000963945 -0.0468638
0.0962222 0.0187092 0.0499014
-0.023094 0.0874678 -0.174835
-0.0172448 0.0967044 -0.183363
-0.0193474 0.22199 -0.0853878
0.0563889 0.0468034 -0.0838326
0.0538107 0.135969 -0.112216
-0.0534618 0.14427 -0.108135
-0.116932 0.0032543 -0.0464503
0.0141929 0.120688 -0.194738
-0.0669622 0.0432868 0.128169
0.0636362 0.0559019 0.0832157
0.00377308 0.114862 0.0389312
-0.0654065 0.0887339 -0.0865019
0.00114748 0.0714386 0.148696
0.132088 -0.0607929 -0.0405062
-0.0521337 0.0838768 0.132862
-0.0572728 0.0539656 -0.08282
-0.0512761 0.00304624 -0.129314
-0.0585769 0.13081 -0.105586
0.053048 0.126025 -0.111744
-0.0892914 0.00395666 0.0986194
-0.0769605 0.0386962 -0.0491033
-0.0585304 0.0474073 -0.0845455
0.0415296 0.200106 -0.056917
0.00193258 -0.110791 -0.0743692
-0.00683136 0.087391 0.143502
-0.0181601 0.0955861 -0.182275
-0.0575099 0.0504109 -0.0497867
-0.0768906 0.0181615 0.0992416
-0.0693474 0.0726907 0.112853
-0.0435266 0.0859778 -0.00360934
-0.0464436 0.102357 0.00193949
-0.0232879 -0.0365266 0.138124
-0.0550056 0.0792729 0.132715
0.0130417 0.190825 0.0274133
-0.0356855 0.0992651 0.132984
0.0586982 -0.101887 -0.0378225
0.0342145 0.118706 -0.14274
-0.0750583 0.099562 -0.0494442
-0.066309 0.0381874 0.128997
-0.0110541 0.0549093 0.0437725
0.0543705 -0.100048 -0.05526
-0.0370875 0.0665383 -0.0101141
-0.0732988 0.0945602 -0.0493223
0.0621384 0.0882061 -0.0751183
0.0269101 -0.0693868 -0.120474
-0.0428972 0.0831715 -0.00419784
-0.0711044 0.00683394 -0.104334
0.0510831 0.0547611 -0.0314827
-0.0956101 0.0063113 0.0373403
0.0453941 0.0577793 0.0697442
0.0508071 0.169674 -0.107985
-0.121196 -0.0101264 -0.0479996
0.050443 0.192457 -0.0770885
-0.109938 0.0181871 -0.0451965
-0.0443678 0.188301 -0.104994
0.0843243 0.139241 -0.0698875
-0.0109348 0.104844 -0.189288
0.0337884 0.0682354 0.0482775
0.0538605 0.14833 -0.111553
-0.0876747 0.0270544 0.0285799
-0.0521423 -0.0076471 -0.12974
0.0493637 0.0521486 -0.0345743
0.0165517 0.0615501 0.0472252
-0.0600362 0.0514978 0.131845
-0.0250149 0.130805 -0.180539
0.0400738 0.204332 -0.083188
-0.0821561 -0.0256614 -0.112551
-0.0279447 0.072586 -0.139344
-0.040976 0.182763 0.00841138
-0.00414819 0.092395 0.0909572
-0.0454709 0.156574 0.00393082
-0.0039498 0.0954318 0.0909406
0.0156512 0.114006 -0.193292
-0.0344073 0.0583323 0.0753009
0.0749938 0.112709 0.00702298
0.048784 0.0508387 -0.035065
-0.102587 -0.0260685 0.0403806
0.0805733 0.154573 -0.00180221
-0.0787708 0.122669 -0.0534809
-0.00283927 0.0984756 0.0917081
-0.0245748 -0.00539424 0.146829
0.0162203 0.117218 0.104076
-0.094866 -0.0500683 0.0356575
-0.0742419 -0.0934145 -0.0682776
-0.0838226 -0.0896331 -0.0656646
0.0224733 0.097684 -0.179269
-0.0208514 0.0548407 0.0628533
-0.024304 -0.00799205 0.146354
0.0253833 -0.103298 -0.0924568
0.00684916 0.0653814 0.150153
-0.0446997 0.0815119 0.0888655
-0.0148521 0.111071 0.134824
-0.0262237 0.048787 0.154505
0.0252405 -0.0646355 -0.122052
-0.0491153 0.0870313 0.132906
0.0101449 0.207783 0.00768265
0.0509527 0.107139 -0.107158
-0.0945355 -0.0111425 0.0986798
0.0218061 0.0773746 -0.148971
-0.125541 -0.0273186 -0.0492617
-0.0520136 0.147677 -0.107803
0.0179043 0.110968 -0.191036
-0.0376354 0.0979207 0.132988
0.013275 0.20976 -0.0774073
-0.00551309 0.076135 0.0299219
-0.05138 -0.00195411 -0.129389
0.0460523 0.195669 -0.0788251
0.0113706 0.215633 -0.0714753
0.0191102 0.151649 0.043359
0.0800989 0.154368 -0.0665536
-0.0556065 -0.0172347 -0.130011
-0.00371342 0.0775964 0.145814
-0.0654306 0.0903625 -0.0870275
-0.0156736 0.0549555 0.0489432
-0.0574435 0.132914 -0.105735
0.0342325 0.1182 -0.140188
-0.0272928 0.105277 0.133122
0.0103753 0.139874 0.042966
0.0778763 0.112623 -0.0734597
-0.0881676 0.0233065 0.0307104
-0.0253308 0.131859 -0.17736
0.0475485 -0.0903799 -0.082517
-0.0258252 0.133692 -0.16993
-0.0258136 0.106305 0.133324
0.0503536 0.06283 -0.07484
0.0833146 -0.0656865 -0.0910212
0.0134832 0.126091 -0.194392
-0.00180528 0.0931498 0.0339467
-0.0847701 -0.040865 -0.112705
-0.0767476 -0.0092204 -0.1091
0.0296568 -0.075804 -0.115169
0.0705914 0.0486709 0.0920985
0.0170248 0.149315 0.0438504
0.0798822 0.014196 -0.0990207
-0.070052 0.194231 -0.0490759
-0.058341 0.0557171 -0.0495226
0.0531727 0.122596 -0.11129
0.0351744 0.123587 -0.155839
-0.0284288 0.0730537 0.154754
0.0104493 0.219298 -0.0551148
-0.0191409 0.0600125 0.0674274
0.102795 -0.0965783 -0.0559643
-0.0278388 0.068656 0.154559
0.0511217 0.068182 -0.0729677
0.0530879 0.123871 -0.111674
-0.00257057 0.0905551 0.0340191
-0.0556069 0.0576065 -0.0810752
-0.0545915 0.0621827 -0.0758275
-0.0587977 0.0586843 -0.0495661
-0.00646227 0.0933211 0.145644
0.0143436 0.201224 -0.0917575
-0.0405606 0.184702 0.00792551
0.0766198 0.0422226 0.10082
0.0549869 0.192974 -0.0380034
-0.0275138 0.06397 0.154479
0.0727924 0.103919 -0.0765196
0.0244579 -0.0620661 -0.12387
0.0807837 0.152477 0.000657484
0.0171245 0.0515007 0.153402
0.0602467 -0.101945 -0.0408072
-0.102248 -0.0160203 0.0394882
0.0126641 0.164813 -0.1417
0.0496804 0.0976348 -0.10344
-0.0516077 -0.09919 -0.0715211
-0.0253415 0.0237949 0.154786
-0.0594001 0.0102527 0.131486
-0.0450356 0.172332 -0.105351
0.032089 0.211673 -0.074132
-0.0233268 -0.0326141 0.140494
0.00439249 0.0105998 -0.135411
-0.0656976 0.118258 -0.104328
-0.111858 0.0142341 -0.0454489
0.0936692 0.023335 0.0500448
-0.00640149 0.0899649 0.0912947
0.00659988 -0.110543 -0.0748002
0.00450116 0.0138305 -0.133311
-0.0252722 0.00577495 0.1503
0.0236169 0.0668676 0.0483815
-0.0926494 0.0146209 0.0328624
0.127701 -0.0525131 -0.0341376
-0.0506186 0.0476267 0.0904329
-0.0266051 0.0541669 0.154398
0.0503038 -0.093339 -0.0749754
-0.0388047 0.0562643 0.079962
0.0693403 0.0856071 -0.000629913
-0.0253604 0.000502168 0.147669
0.0934161 -0.098589 -0.0626731
-0.0739332 -0.00244605 -0.106498
0.0279976 0.0687539 0.0489817
-0.0825437 0.16719 -0.0643107
0.00962288 0.112658 0.12028
0.0101863 0.212795 -0.00468747
0.0492285 0.0632769 -0.0770026
0.00935825 0.0625079 0.150744
0.0680273 -0.101477 -0.0283793
-0.0488495 0.127827 -0.00125875
-0.0450686 0.158135 0.00522385
-0.0756089 -0.00676801 -0.108087
-0.0822946 0.0434256 0.020496
0.0262989 0.0683158 0.0494416
0.0445319 0.0794775 -0.0897959
-0.0697598 -0.0950693 -0.0693296
0.0469584 0.17869 -0.103528
0.126488 -0.0344182 -0.0419761
0.0501174 0.0534629 -0.0333196
-0.0536582 0.0817079 0.132783
0.0444501 0.0818152 -0.0924391
0.010313 0.21874 -0.0631701
0.0107463 0.219694 -0.0520068
0.0630567 0.188324 -0.0322593
0.0211601 0.166752 0.0373447
-0.0340253 0.197098 -0.0042067
0.0948681 -0.033896 0.057219
-0.0627765 -0.0961778 -0.0704455
0.118197 0.0210209 -0.0312783
0.0484699 0.0589461 -0.0778329
-0.0921839 -0.0859427 -0.0631625
0.0536555 0.130041 -0.112321
-0.0697987 -0.0807731 0.0211432
-0.0595445 0.045247 -0.0493875
-0.0199828 0.204385 -0.0336932
-0.0161573 0.0623424 0.0726555
-0.0802462 -0.0908644 -0.0667518
-0.045996 0.16254 -0.105247
0.0113487 0.219333 -0.0405351
0.0238839 0.077659 -0.126423
-0.058426 0.0489156 -0.0494492
0.127107 -0.069167 -0.0412822
-0.0364623 0.202217 -0.046835
0.0199185 0.156136 0.0418155
0.0228901 -0.10295 -0.0948544
0.0630992 0.158402 -0.0543765
0.0746598 -0.0968224 -0.00069356
-0.0690816 0.198626 -0.0737198
-0.0220485 0.20272 -0.02602
-0.0501772 0.150489 -0.106637
-0.0809789 0.181221 -0.0490058
-0.0472639 0.0448401 -0.0963703
0.0528117 0.114832 -0.110312
0.0516151 0.109519 -0.10793
-0.00680322 0.067446 0.0306347
-0.0793206 0.184397 -0.0491351
0.0585733 0.05156 0.0502423
-0.0816831 0.159473 -0.0627589
0.00612075 0.137425 -0.175827
0.0263664 0.118636 -0.182727
-0.0483312 0.121731 -0.000415152
-0.0667178 0.0811067 -0.0494644
-0.0637333 0.121364 -0.104542
0.0504802 0.100179 -0.10453
-0.0623118 0.0676585 -0.0492101
-0.00690723 0.0892725 0.144081
0.00886134 0.137415 -0.13551
0.0696263 -0.101152 -0.0201658
-0.0670201 0.0550351 0.00945449
-0.0482083 0.119062 -9.69246e-05
-0.0430814 0.165762 0.00993225
0.0491496 0.064218 -0.0772339
0.00848437 0.031688 -0.114017
0.00694064 0.139577 -0.157407
-0.105745 0.0239922 -0.0463174
-0.0253591 0.130228 -0.13823
-0.0479675 0.0423042 -0.0964821
0.0698318 0.0873688 -0.000608066
-0.0964136 0.0307926 -0.0473563
-0.0701456 0.0886913 -0.0494284
-0.0969817 -0.0346443 0.0930742
0.0560589 -0.101895 -0.0442167
-0.0302091 0.0827828 -0.12027
-0.00831813 0.0530812 0.0335911
0.0495014 0.0960703 -0.102783
0.0244772 0.0871832 -0.163872
0.049175 0.056103 -0.078849
-0.0539033 0.0616939 -0.0764764
0.0141466 0.187437 0.0285713
-0.0591704 0.129798 -0.105551
0.0478379 0.0887463 -0.0985017
0.0298886 0.12086 -0.175087
-0.0473737 0.148503 -0.00269094
-0.0725397 0.000864297 -0.105525
0.0694895 0.0543353 0.129734
0.0610701 -0.0255458 0.137191
-0.0803721 -0.0542195 0.081189
-0.077435 0.109087 -0.0506612
0.0492532 0.193061 -0.0774702
-0.0440874 0.158914 0.00687369
-0.0767889 -0.0732127 0.0250905
0.0847636 0.0222724 0.113882
-0.0665051 0.19969 -0.0743824
-0.0734153 0.0402908 -0.0493054
-0.0677565 0.0213812 -0.100731
-0.0269756 0.0593676 0.154563
0.0702541 0.183377 -0.0270864
-0.032522 0.054038 -0.0181446
-0.0202759 0.201883 -0.0301179
0.0509425 0.103282 -0.106166
0.0121765 0.194514 0.0255316
0.059823 0.16864 -0.0575369
-0.0999493 0.0290232 -0.0470889
0.0523222 0.190835 -0.0750682
-0.0403959 0.0733588 -0.00711952
-0.0380428 0.0858708 -0.11761
-0.0721867 -0.0772452 0.0221047
0.0107134 0.216875 -0.0185655
-0.0249171 -0.00298178 0.147109
-0.057974 0.131852 -0.105627
0.0428538 0.198856 -0.0533503
0.0386398 0.204048 -0.0630391
0.0438162 0.0795272 -0.0902334
-0.119554 -0.00466821 -0.0476083
0.0622426 0.15905 -0.0544374
-0.047694 0.113761 0.00109262
0.0927992 -0.00797499 -0.104723
0.0155955 0.0536837 -0.0968831
-0.0393745 0.0825562 -0.114148
-0.0610325 0.064364 -0.0492183
0.0766427 0.110217 -0.0748081
0.0233165 0.0804849 -0.155817
0.0632362 -0.101492 -0.0392862
-0.0788754 0.184165 -0.0685365
-0.0682785 0.110804 -0.10132
0.0240174 0.0928681 -0.171151
0.0630429 -0.048118 0.126903
-0.0855308 -0.0439517 -0.112712
0.0817979 0.120008 -0.0733772
-0.0868095 0.165865 -0.0472645
0.0660483 0.0949481 -0.0761476
-0.074075 0.0969178 -0.0494653
-0.0340476 0.100637 0.132964
-0.0169126 0.213044 -0.0469386
0.0514262 -0.0947431 -0.0714277
0.126547 -0.0381344 -0.0403811
-0.067768 0.0840688 -0.0495555
0.0829355 0.166222 -0.0175127
-0.080919 0.151898 -0.0608492
-0.0194288 0.0517806 0.0548395
0.0485854 0.0578608 -0.0782838
0.0178628 0.177651 0.0320046
-0.0539934 0.061339 -0.0780469
0.0529827 0.0564604 -0.0264966
0.0707812 -0.0995467 -0.0164735
-0.0911337 0.0172443 0.0315842
0.0239967 0.0748846 -0.111373
-0.083979 -0.0380904 -0.112103
-0.0221914 0.22206 -0.0848615
0.0673804 -0.101598 -0.034141
-0.0197695 0.0517086 0.0565149
0.0722244 -0.0862575 -0.0827404
-0.023858 -0.0133998 0.145397
-0.0483959 0.144811 -0.00360994
0.0433087 0.198801 -0.0491279
0.0240211 0.0753087 -0.112554
0.0788135 0.156199 -0.0655836
-0.0324548 0.102086 0.132977
0.121334 -0.0802991 -0.042937
-0.0365731 0.065532 -0.0106379
0.0196449 0.0634306 -0.101568
-0.0937233 0.0119745 0.0344614
-0.0805703 0.148956 -0.0601654
-0.00665343 0.0860092 0.143343
-0.0722071 -0.0555334 0.0745138
-0.0811229 0.0371102 -0.0484635
0.00561988 0.127276 0.0411872
-0.0209336 0.0558274 0.0641994
-0.0822034 0.16428 -0.0637288
0.0927553 -0.057136 -0.0987383
0.0237777 0.0740834 -0.110109
0.0153337 0.116995 0.0984685
0.11201 0.0304792 -0.0303186
-0.123957 -0.0213419 -0.0490164
0.0539813 0.150743 -0.1116
-0.0135554 0.0729192 0.0798875
0.0371803 0.204644 -0.064847
-0.0594566 0.0413347 -0.0882037
-0.120481 -0.0600651 -0.0558628
-0.0633414 0.0707672 -0.0493903
0.0809233 0.158845 -0.0096048
0.00518049 0.0681781 0.148552
0.127696 -0.0427971 -0.0374994
-0.00351078 0.0836587 0.0311563
-0.0447664 0.0929536 -0.00120226
0.100115 0.0126776 0.0508351
-0.119006 -0.00281215 -0.047247
0.0680495 0.0972595 -0.0764729
0.00476131 0.123885 0.0403888
-0.0517503 -0.00417615 -0.129217
-0.044117 0.0556197 -0.00116818
-0.045155 0.0917966 0.13318
-0.0602627 0.0369302 -0.0889553
0.00873994 0.13824 0.0433183
-0.0412231 0.193893 -0.102033
0.0750358 0.0443715 0.0986164
-0.0193826 0.204651 -0.0363104
0.11731 0.0239561 -0.0308966
0.0472278 0.0842821 0.139831
0.0791108 0.11508 -0.0730284
-0.0371531 -0.105567 -0.0717855
-0.0428395 0.170829 0.0102609
0.0217741 0.158292 0.0406357
-0.0949865 -0.0386469 0.0910665
0.0107934 0.217061 -0.068926
-0.0972274 -0.045275 0.0369537
0.0449707 0.0584384 0.0693335
-0.0568394 0.134105 -0.105726
0.0516524 0.195123 -0.0405231
0.0240126 0.0759403 -0.115122
0.0651499 0.186949 -0.0304245
-0.0723651 0.0926089 -0.0492479
-0.0964141 0.00358859 0.037744
-0.0818242 0.177723 -0.0665016
0.0209092 0.163905 0.0393251
-0.0562289 0.135514 -0.105821
0.0664779 -0.0584217 0.121463
0.0613076 0.0866299 -0.0750258
0.0113586 0.219129 -0.0376928
0.0470709 0.194882 -0.0784696
0.0352109 0.122646 -0.15278
-0.0438473 0.159524 0.00742408
0.0532464 0.194036 -0.0394321
-0.0744945 -0.00397917 -0.106976
0.0106274 -0.0207542 -0.141635
-0.0397257 0.0807378 -0.112879
