ply
format ascii 1.0
element vertex 1635
property float x
property float y
property float z
end_header
0.0568182 -0.349257 -0.817983
-0.350531 0.859941 -0.45878
-0.233258 0.615648 0.0466905
-0.352803 0.722752 -0.522815
-0.440595 0.416767 -0.287568
-0.426099 0.0772058 -0.469562
0.395599 -0.0996733 -0.814739
-0.0898569 0.822863 -0.449003
-0.088202 0.824868 -0.444472
-0.080329 0.831847 -0.41183
0.333007 -0.165253 -0.632796
-0.350092 0.703497 -0.528127
-0.274238 1.00674 -0.361656
-0.369171 0.404845 -0.519467
0.218583 -0.362214 -0.762932
-0.176561 0.209714 0.0190387
-0.368295 0.285124 -0.553058
-0.368659 0.275232 -0.555499
-0.408774 0.0425538 -0.479821
-0.357576 0.799987 -0.491522
-0.214585 0.857394 -0.525196
-0.233953 0.781061 -0.58463
-0.35875 0.781858 -0.500166
-0.273859 0.21352 -0.636736
-0.253218 0.184973 -0.654416
-0.357577 0.77241 -0.504989
-0.425561 0.0619441 -0.466156
-0.0986448 0.613719 -0.648751
0.074461 0.89282 -0.238926
0.0115007 0.505332 0.380745
0.055501 0.889644 -0.235126
0.285481 -0.321325 -0.726716
0.0928079 0.883441 -0.339647
-0.152603 0.078912 0.0126886
-0.423382 0.0188047 -0.52424
-0.0277968 0.561518 0.371697
-0.00930211 0.66461 0.275842
-0.441166 0.476616 -0.276148
-0.379953 -0.042088 -0.391795
-0.0889874 0.573122 0.150283
0.0145477 0.830526 -0.128663
-0.440594 0.495096 -0.27341
0.00466735 0.524074 0.118172
-0.233548 0.399925 0.0521311
-0.206582 0.990625 -0.2988
-0.249039 0.449156 0.0524359
-0.374866 0.83932 -0.192376
-0.439637 0.705073 -0.227313
-0.261176 0.879937 -0.128309
0.38282 -0.851582 -0.211166
-0.261269 0.87616 -0.12351
0.0168125 0.824543 -0.121624
0.329159 1.00186 -0.50842
-0.260808 0.862758 -0.109413
0.0121343 0.835783 -0.136414
-0.251505 0.457495 0.0528869
-0.319123 0.94002 -0.443793
-0.254141 0.466601 0.0536934
-0.153621 0.914459 -0.262389
-0.0602188 0.564915 0.344296
-0.444954 0.570158 -0.39629
-0.436081 0.803423 -0.307494
-0.434758 0.807418 -0.305671
-0.00844959 0.460579 0.23793
-0.0875765 0.568504 0.294301
-0.352283 0.719037 -0.524097
-0.351087 0.707359 -0.527474
-0.339306 0.671786 -0.532278
-0.343106 0.684022 -0.530396
0.41823 -0.101202 -0.715014
-0.340534 0.675444 -0.531988
-0.437423 0.799434 -0.309316
-0.437237 0.713377 -0.225129
-0.45578 0.754977 -0.32281
-0.454901 0.759369 -0.321438
-0.17926 0.912678 -0.376345
-0.433404 0.774481 -0.468469
-0.442173 0.689942 -0.231675
-0.455965 0.717029 -0.3353
-0.440972 0.697473 -0.229457
-0.458037 0.676964 -0.350514
-0.241582 0.699454 -0.598517
0.588999 -0.803357 -0.160275
-0.244914 0.737634 -0.0131686
-0.44373 0.673328 -0.23664
-0.113103 0.52293 -0.668489
0.136623 0.850477 -0.128098
-0.233858 0.631558 0.0402483
-0.442031 0.792251 -0.311643
-0.456958 0.745324 -0.326019
0.201439 0.09236 -0.0371179
0.00870923 0.00848917 0.0161353
-0.457848 0.668986 -0.353424
-0.416369 0.00153544 -0.485387
-0.405728 0.785922 -0.190514
-0.398938 0.791459 -0.184846
-0.0490152 -0.34554 -0.817933
-0.398433 0.561314 -0.512731
-0.352846 0.72722 -0.520873
-0.406377 0.594303 -0.511582
-0.387536 -0.063542 -0.576942
-0.442389 0.5245 -0.268975
0.156161 -0.198132 -0.79808
-0.288852 0.0939204 -0.723079
-0.284493 0.0962259 -0.719875
-0.427903 -0.225695 -0.396997
0.16158 0.920118 -0.256044
-0.433119 -0.256419 -0.406605
0.279484 -0.48257 -0.601776
-0.432134 -0.249463 -0.403386
0.278316 0.21493 -0.0283047
-0.432497 -0.271035 -0.413655
0.325626 -0.121354 -0.623179
-0.0196195 0.220555 0.0726992
-0.165398 0.914536 -0.304193
-0.39785 0.188032 -0.607895
0.368765 -0.656267 -0.339715
-0.41126 0.172231 -0.62939
-0.406337 0.176933 -0.621231
-0.505094 0.0678429 -0.809659
-0.404218 -0.351545 -0.311618
-0.387069 -0.0598334 -0.567695
-0.346603 -0.41517 -0.58776
0.297333 -0.755675 -0.249795
-0.360311 -0.422734 -0.526313
-0.345005 -0.41743 -0.585093
0.319537 0.94402 -0.418641
-0.375056 -0.405066 -0.508166
-0.33986 -0.443189 -0.546336
-0.389218 -0.0675511 -0.592654
0.396159 0.406351 -0.0825253
-0.387246 0.00846926 -0.391414
0.316552 0.937741 -0.401427
-0.275939 -0.46329 -0.585794
-0.274842 -0.464911 -0.584349
-0.266943 -0.527066 -0.590361
-0.265424 -0.524564 -0.592294
-0.269183 -0.53088 -0.585491
-0.456601 0.660535 -0.356663
-0.196743 -0.618781 -0.584608
0.315312 -0.391281 -0.108708
-0.292555 -0.55739 -0.534394
-0.188489 -0.609456 -0.59413
-0.257755 -0.483465 -0.578518
-0.308326 -0.562373 -0.48711
-0.337517 -0.611893 -0.378853
-0.334417 -0.610788 -0.379576
-0.332967 0.646869 -0.541811
-0.255948 -0.484637 -0.579294
0.315724 1.01022 -0.412564
-0.346571 -0.435425 -0.539349
-0.353251 -0.429626 -0.533429
-0.362598 -0.4206 -0.523931
-0.443418 0.664838 -0.239287
-0.365044 -0.418063 -0.521385
0.181664 -0.302252 -0.796364
-0.273864 -0.466946 -0.582698
0.00700737 0.0264594 0.014795
-0.171224 -0.587957 -0.133206
-0.00736032 0.100463 0.0321986
-0.0174531 0.175294 0.0545785
-0.096632 0.571371 0.188257
-0.385156 -0.0718456 -0.533991
-0.132231 -0.312185 0.0144961
-0.135911 -0.269806 0.0167111
-0.0640954 -0.265558 0.0245062
-0.00343336 0.502546 0.166214
0.112164 -0.313948 0.010336
-0.216907 0.10906 -0.691913
-0.135221 -0.284571 0.0167357
-0.130917 -0.339794 0.00847867
-0.133258 -0.105239 -0.00797948
-0.0549354 -0.440225 -0.0135703
0.2617 1.00131 -0.21159
-0.146158 0.0572994 0.0062575
-0.141801 -0.425279 -0.00842506
0.320008 0.985425 -0.319243
-0.363076 -0.5455 -0.264239
0.124202 0.567026 0.32919
0.0450574 0.687947 0.0326031
-0.40473 -0.288568 -0.338944
-0.129577 -0.35752 0.00443268
-0.324819 0.930477 -0.277533
-0.245559 0.743665 -0.0173722
-0.063009 -0.246922 0.0225155
0.00642808 -0.715553 -0.385486
-0.343779 -0.536134 -0.279582
-0.351878 -0.53783 -0.274979
0.394271 0.39263 -0.0804666
0.0271074 -0.358243 -0.815526
-0.380418 -0.0313027 -0.391675
-0.132481 -0.0444826 -0.0216362
-0.391995 0.0262431 -0.390155
-0.0948144 0.787124 -0.518726
-0.0455216 -0.114248 0.0191689
0.215516 0.976288 -0.347299
-0.131899 -0.0516725 -0.0208979
-0.0444607 -0.0972379 0.0183515
-0.304841 -0.580116 -0.346319
-0.303555 -0.578456 -0.339829
-0.342905 -0.617545 -0.373938
0.253637 0.989646 -0.18064
0.0780368 -0.708167 -0.388184
0.283646 -0.145492 -0.122774
-0.255643 -0.680527 -0.303636
0.176347 0.000870854 -0.0489161
0.00578834 0.0358584 0.0143463
-0.386645 -0.644579 -0.355104
-0.381538 -0.641989 -0.35693
-0.163718 -0.570369 -0.111207
-0.36051 -0.630123 -0.362475
-0.379436 -0.561268 -0.242226
-0.243095 -0.639726 -0.221117
-0.239227 -0.636644 -0.223793
-0.185207 -0.612188 -0.161478
0.316746 -0.102033 -0.615439
-0.358522 0.778788 -0.501568
-0.0538301 0.873965 -0.246331
0.13281 0.563009 0.234887
-0.00845128 0.658503 0.218604
-0.020348 0.272038 0.0966929
-0.673324 -0.945392 -0.0839277
0.423425 0.732773 -0.479737
-0.0912702 0.572634 0.159549
0.0108886 0.475415 0.360111
0.0117406 0.476829 0.362599
-0.19691 0.893463 -0.458756
0.0110548 0.481458 0.365367
0.327885 1.00708 -0.453343
-0.131625 -0.318916 0.0133458
-0.638271 -0.934637 -0.144246
-0.644418 -0.952462 -0.134179
-0.198014 0.289632 0.0256795
-0.646444 -0.959101 -0.130182
-0.64035 -0.939924 -0.141179
0.475762 -0.0749262 -0.903797
0.136972 -0.635162 -0.595063
-0.509545 -0.0386528 -0.910328
0.138008 -0.63176 -0.598317
0.114638 -0.664938 -0.567542
0.138349 -0.627165 -0.601019
-0.457565 0.684309 -0.347634
-0.645443 -0.978657 -0.12064
0.302892 0.92965 -0.330636
-0.326645 0.0741433 -0.754759
-0.0205645 -0.533147 -0.735456
0.570074 -0.848374 -0.0793222
0.000243673 0.580006 0.377526
0.596182 -0.920584 -0.171612
-0.631567 -0.993243 -0.116559
-0.0936074 0.572128 0.168468
0.236021 -0.515645 -0.595319
0.589822 -0.874555 -0.0738437
0.0455317 -0.352249 -0.816983
-0.0956055 0.785545 -0.524585
0.604017 -0.931443 -0.152141
0.194287 -0.523088 -0.626329
0.598491 -0.923737 -0.164711
-0.0157327 -0.535098 -0.736955
0.532907 -0.964444 -0.129961
-0.646779 -0.960088 -0.12926
-0.0181952 0.182165 0.0582153
-0.505822 -0.88102 -0.0745018
0.0826805 -0.409702 -0.0021275
0.528761 -0.0234129 -0.914525
-0.238041 1.00637 -0.295618
-0.339487 0.903495 -0.429878
-0.31036 0.926095 -0.398555
-0.333533 0.91242 -0.420617
-0.480697 -0.860434 -0.0809608
-0.544204 0.0324546 -0.886162
-0.132318 -0.0988216 -0.0106563
0.514619 -0.955863 -0.137081
0.508813 -0.951933 -0.139489
0.590964 -0.913346 -0.183883
-0.00722907 0.464761 0.225654
-0.622385 -0.901662 -0.167122
-0.281649 0.99575 -0.297012
-0.450516 -0.833983 -0.090647
-0.445584 -0.829476 -0.0930448
-0.204229 0.879249 -0.491188
-0.13391 -0.215113 0.00825677
-0.060669 -0.218945 0.0195564
-0.00427513 -0.65973 -0.19535
-0.169074 -0.583049 -0.12806
0.561315 -0.83808 -0.0815576
0.138302 0.533072 0.0939518
-0.632912 -0.91987 -0.151649
-0.591384 -0.953096 -0.154973
0.352883 -0.240368 -0.633537
-0.462379 -0.084096 -0.885506
-0.646537 -0.965657 -0.124773
-0.554504 -0.784795 -0.114323
-0.00113724 -0.650077 -0.174143
-0.501055 -0.876875 -0.0754921
-0.410686 0.611679 -0.511258
-0.342187 -0.727999 -0.149251
-0.158231 -0.556165 -0.0916665
-0.416081 -0.800737 -0.107283
-0.40727 -0.0338577 -0.51805
-0.421035 -0.805529 -0.105157
-0.399526 0.131541 -0.37149
0.491991 -0.699534 -0.218001
0.252331 -0.705071 -0.275875
-0.665656 -0.9393 -0.0855512
-0.0921194 0.816286 -0.461628
-0.45552 -0.838265 -0.0892007
-0.61179 -0.975828 -0.0567306
-0.246226 0.174872 -0.659291
-0.637712 -0.990279 -0.118306
-0.626691 -0.908779 -0.161302
-0.58548 -0.947528 -0.15895
-0.517621 -0.7238 -0.142722
-0.30646 -0.776749 -0.255026
-0.24235 0.718018 -0.00100951
-0.37116 -0.410567 -0.513868
0.422197 -0.878906 -0.190185
0.0867724 -0.402139 0.00277083
-0.367995 -0.753417 -0.132738
-0.372982 -0.758357 -0.129535
0.294238 1.00313 -0.345013
0.350937 -0.817103 -0.228546
0.6246 -0.922488 -0.0577381
-0.288933 -0.749735 -0.266941
0.279879 -0.0980046 -0.667815
-0.239217 0.991331 -0.36524
-0.284967 -0.74184 -0.269803
0.531676 -0.836777 -0.266012
-0.290721 -0.753201 -0.265707
-0.0951735 0.690208 -0.619146
-0.272243 -0.708938 -0.283345
-0.281572 -0.732066 -0.273439
-0.139402 0.286202 -0.671013
-0.114415 -0.70695 -0.40147
0.183723 0.168407 -0.721802
0.433713 -0.889849 -0.182701
-0.0128151 -0.706793 -0.315772
-0.0117921 -0.709696 -0.334117
-0.130126 -0.348154 0.00589635
-0.303265 0.0865377 -0.732636
-0.181571 -0.676135 -0.411359
0.106264 0.897244 -0.245214
-0.309313 -0.575412 -0.420828
-0.235019 -0.633286 -0.227216
0.352216 -0.235335 -0.634123
-0.332709 0.632647 -0.552659
-0.226517 -0.635813 -0.22647
0.49709 -0.0238952 -0.907714
-0.278203 0.371204 -0.57788
-0.175664 -0.594817 -0.144207
-0.132151 -0.159572 0.00370146
-0.270489 -0.662196 -0.201364
0.481561 0.127642 -0.788167
-0.294084 -0.558541 -0.530864
-0.0777574 -0.513574 -0.715744
-0.371421 -0.634603 -0.359625
-0.646897 -0.961786 -0.128058
-0.304685 -0.580624 -0.351609
-0.399869 -0.760525 -0.31189
-0.144567 -0.694561 -0.40621
0.0886849 0.140898 -0.73436
-0.485923 -0.864843 -0.0800219
-0.496094 -0.873125 -0.0770821
-0.42136 -0.089282 -0.851084
0.303692 0.349479 -0.018741
-0.492229 -0.716638 -0.307086
-0.134475 -0.223016 0.0087055
-0.508432 -0.73317 -0.29534
-0.340098 -0.614303 -0.376709
0.017623 -0.714133 -0.385144
0.18127 0.162449 -0.717436
-0.499325 -0.722954 -0.303309
-0.315482 -0.311518 -0.728673
-0.47907 -0.660935 -0.167337
0.0715813 -0.523416 -0.721954
-0.396517 -0.649813 -0.351322
-0.388467 -0.37426 -0.48348
-0.448314 -0.621677 -0.18794
-0.194188 -0.441846 -0.745559
-0.0139537 -0.696722 -0.278604
0.122026 -0.416974 -0.818116
-0.406827 -0.325367 -0.324506
-0.49677 -0.884986 -0.239632
0.584668 -0.79683 -0.163534
-0.440837 -0.825027 -0.0957753
-0.00369779 0.506609 0.162289
-0.272694 -0.0820746 -0.640529
-0.435743 -0.820115 -0.0984154
-0.00420164 0.51118 0.157898
-0.004078 0.635228 0.172891
0.353234 0.175045 -0.0689288
-0.289919 0.996836 -0.351675
-0.00502693 0.638785 0.178764
-0.611542 -0.884569 -0.183216
-0.51551 -0.888549 -0.0719768
-0.0126727 -0.708454 -0.324756
-0.645444 -0.909035 -0.083002
-0.63427 -0.989777 -0.122043
-0.149589 -0.20402 -0.785659
-0.63095 -0.987041 -0.125135
-0.31144 0.934921 -0.361365
0.16771 0.156089 -0.72041
-0.629903 -0.914025 -0.155526
-0.631749 -0.917272 -0.152715
-0.342939 0.977545 -0.356139
-0.460292 -0.842353 -0.0876636
-0.130051 -0.0725724 -0.0189271
-0.401537 -0.78666 -0.114431
-0.566825 -0.933574 -0.060285
-0.309249 -0.565315 -0.474562
0.361803 -0.345071 -0.603795
-0.574855 -0.833819 -0.228494
-0.344261 -0.437449 -0.541419
-0.158669 -0.348039 -0.800286
-0.355111 -0.427153 -0.531188
0.189124 -0.347764 -0.782945
-0.302465 -0.416687 -0.664848
0.328923 -0.464119 -0.552477
0.409398 0.591701 -0.129084
-0.30043 -0.418733 -0.661998
-0.298273 -0.420665 -0.659038
-0.396484 0.039581 -0.833997
-0.397304 -0.22786 -0.359444
-0.0985802 0.571538 0.233681
-0.356575 -0.314366 -0.652464
-0.279917 -0.105594 -0.646745
-0.391698 0.0418967 -0.828422
-0.38652 0.0442436 -0.822775
0.419147 -0.653308 -0.155687
-0.406107 -0.334165 -0.320526
-0.526081 -0.0294908 -0.776681
0.140308 -0.219651 0.00840967
-0.50744 0.0651652 -0.81328
-0.299298 -0.0601641 -0.764537
-0.253022 -0.0586304 -0.680172
-0.297793 0.0891787 -0.729367
-0.317092 -0.173841 -0.667775
-0.470434 -0.851617 -0.0832479
-0.347282 -0.237925 -0.669322
0.431374 -0.096561 -0.867193
-0.369005 -0.266662 -0.610926
-0.27888 -0.437036 -0.628796
-0.318116 -0.464907 -0.568882
-0.446407 0.0149316 -0.880589
-0.283807 -0.432535 -0.627356
-0.313733 -0.303502 -0.730856
-0.351701 -0.115816 -0.607003
-0.157687 -0.572788 -0.648181
-0.178404 -0.393687 -0.798002
-0.28643 -0.552586 -0.544491
-0.348115 -0.240484 -0.668984
-0.280946 -0.108586 -0.647139
0.140723 0.540964 0.0934656
0.303731 1.00627 -0.375906
-0.478261 -0.912428 -0.164532
-0.306343 -0.398573 -0.617616
-0.530517 0.0292098 -0.854723
-0.311061 -0.391458 -0.618112
0.364662 0.72548 -0.528732
-0.313648 -0.388154 -0.618494
-0.232023 -0.440229 -0.654086
-0.234578 -0.439791 -0.651891
-0.0303986 -0.136307 -0.796985
-0.433431 0.735667 -0.21745
-0.0269748 -0.121423 -0.790808
0.164198 -0.11493 -0.0116737
-0.376092 -0.727992 -0.328128
-0.232335 -0.0582453 -0.677552
-0.37327 -0.407555 -0.510772
0.396583 -0.345374 -0.568151
0.313588 0.934641 -0.384568
-0.226385 -0.441427 -0.657664
0.523059 0.0721579 -0.853689
0.387673 0.186726 -0.668971
-0.361165 -0.153455 -0.606322
-0.182488 -0.455083 -0.646786
-0.301273 -0.0933051 -0.659033
-0.320074 -0.379733 -0.618083
-0.00362489 -0.71269 -0.36811
-0.381423 -0.100877 -0.674085
-0.305793 -0.062157 -0.768992
0.213284 0.146867 -0.677438
-0.313101 -0.0631397 -0.773479
-0.363999 -0.312273 -0.61271
-0.0031373 -0.712112 -0.373459
0.316517 -0.491062 -0.53956
-0.27406 -0.088345 -0.642165
-0.13188 -0.0382452 -0.0229663
-0.229547 -0.440667 -0.655733
-0.185032 -0.499474 -0.635564
-0.16692 0.139415 0.0169718
-0.157454 0.0958228 0.0154046
-0.0822348 -0.711853 -0.396028
0.499497 0.0973949 -0.827009
-0.28716 -0.122197 -0.651535
-0.277953 -0.542719 -0.5684
0.0385711 -0.712347 -0.385018
-0.568311 -0.936905 -0.173567
0.279118 -0.0892768 -0.666701
-0.530586 -0.946881 -0.150943
-0.00276376 0.485113 0.188439
-0.279913 -0.546485 -0.562263
-0.280769 -0.547184 -0.558434
-0.351646 -0.69176 -0.345207
-0.279107 -0.545027 -0.565559
-0.234319 -0.510428 -0.605775
-0.395261 -0.217385 -0.362738
-0.0470138 -0.134624 0.0183534
-0.499943 -0.0211027 -0.712488
-0.20628 -0.513839 -0.620621
0.212333 0.325985 0.0389839
-0.00292082 -0.689015 -0.61266
0.329047 1.00105 -0.509936
-0.56075 -0.79457 -0.111492
-0.387493 -0.168462 -0.37596
-0.249512 0.50415 0.0368723
-0.299225 -0.76711 -0.259802
-0.260767 -0.515084 -0.596315
-0.115462 -0.491816 -0.714094
0.386758 0.0238862 -0.82102
0.18086 -0.66858 -0.495423
0.0426339 0.135117 -0.739149
-0.255339 -0.440015 -0.619913
0.113283 -0.701739 -0.39438
-0.202008 -0.44949 -0.6681
-0.114912 0.89284 -0.211971
-0.325025 0.246162 -0.582825
0.333525 -0.168565 -0.633147
-0.264336 -0.46131 -0.593942
-0.410722 0.780805 -0.194549
-0.263023 -0.466033 -0.594168
-0.00916306 0.665938 0.249211
-0.108986 -0.497576 -0.712556
-0.366185 0.791174 -0.152391
-0.176046 -0.477306 -0.649176
-0.597259 -0.865042 -0.205549
-0.344129 0.687625 -0.529394
-0.17583 -0.478629 -0.648066
-0.175843 -0.596646 -0.610862
-0.495259 -0.0192376 -0.702947
-0.106103 -0.501073 -0.712162
-0.523363 -0.0535129 -0.866315
-0.104417 -0.503042 -0.712042
-0.00342819 -0.377504 -0.805759
-0.17769 -0.488169 -0.644009
-0.0229791 -0.532246 -0.734864
-0.25567 -0.395111 -0.735605
-0.0334454 -0.528527 -0.731659
-0.0940186 -0.510778 -0.712877
-0.111721 -0.49437 -0.713045
0.358831 0.372063 -0.529617
-0.176155 -0.484467 -0.646214
0.338068 -0.453711 -0.16837
-0.00391428 -0.686157 -0.617373
-0.11476 -0.491924 -0.713585
-0.370271 0.256492 -0.561453
-0.0706764 0.121362 -0.723049
-0.128815 -0.476379 -0.73776
-0.190627 -0.430891 -0.766405
-0.114001 -0.492108 -0.713126
-0.0847755 -0.51444 -0.7133
-0.041481 -0.525897 -0.728858
0.169383 -0.470803 -0.68268
-0.354848 -0.331344 -0.61368
-0.0909567 0.820624 -0.452832
0.499322 -0.0852462 -0.868302
0.534527 0.00289119 -0.90786
-0.371182 0.846561 -0.19404
-0.335006 -0.803496 -0.235122
0.00717555 -0.525726 -0.745473
0.230328 -0.65816 -0.296546
-0.188139 -0.423257 -0.775146
-0.0442998 -0.524949 -0.728018
-0.342014 -0.440295 -0.543863
-0.389702 0.312106 -0.318114
0.268536 0.935512 -0.21125
-0.0091207 -0.376886 -0.804636
-0.059107 -0.446003 -0.831924
-0.0806627 -0.44304 -0.827584
-0.037798 -0.292825 -0.830837
-0.1536 -0.319791 -0.80065
-0.0728971 -0.288571 -0.829268
0.432882 0.652358 -0.482267
-0.0944609 -0.340307 -0.813461
-0.145437 -0.139191 -0.751742
-0.414719 0.629858 -0.509845
0.142444 -0.376719 -0.786571
-0.264198 -0.456531 -0.594539
0.159095 -0.46039 -0.706658
-0.0558071 -0.232806 -0.827818
0.354304 -0.641014 -0.348802
-0.0842215 0.828968 -0.426142
0.488478 -0.0219008 -0.902191
-0.228618 0.805797 -0.575142
0.513211 -0.0589377 -0.903963
0.0419015 -0.302264 -0.818587
-0.136708 0.903882 -0.210674
-0.135891 0.118542 -0.71226
0.319978 0.996062 -0.330258
-0.32535 -0.797406 -0.243731
-0.147605 -0.51343 -0.0521941
0.382206 0.0253916 -0.817924
0.159183 0.795787 -0.0308625
-0.0183044 -0.366344 -0.807879
-0.223898 -0.0275114 -0.677204
-0.390074 -0.0685511 -0.596174
-0.250991 -0.6773 -0.309525
0.006374 -0.299418 -0.825287
-0.0865524 -0.326208 -0.828345
-0.174091 0.912102 -0.337251
-0.473319 -0.704063 -0.313553
0.142098 -0.591632 -0.622639
-0.0976945 -0.340765 -0.813508
0.401568 0.753378 -0.478925
-0.440851 0.485782 -0.274863
-0.179521 -0.397563 -0.796562
-0.0708064 -0.339979 -0.81511
0.0481885 -0.351487 -0.817317
-0.118404 0.479163 -0.677526
-0.357074 -0.325942 -0.613209
0.141373 -0.535609 -0.642668
-0.39181 -0.197504 -0.36835
-0.18044 -0.455764 -0.645999
-0.208858 0.0335436 -0.689397
-0.373052 -0.833833 -0.210556
-0.247531 -0.139715 -0.707762
-0.282589 -0.0828793 -0.670617
0.119498 0.867101 -0.178718
-0.0944088 0.789193 -0.512733
-0.288572 -0.0870774 -0.666925
-0.512617 0.0600112 -0.822946
-0.316986 -0.384476 -0.618475
0.316692 0.531284 -0.0432767
-0.425335 0.159818 -0.653275
-0.454147 0.00278225 -0.590993
-0.28865 -0.677272 -0.189837
-0.367488 -0.296895 -0.612474
-0.414497 0.0303731 -0.851591
-0.0618374 -0.252115 -0.829528
0.414823 -0.649421 -0.15809
-0.0653885 -0.264947 -0.8303
-0.0802058 0.880833 -0.215593
-0.425659 0.825984 -0.299577
-0.541659 0.00440268 -0.899662
-0.529949 0.0348761 -0.851721
-0.430451 0.0141961 -0.536279
-0.479049 -0.000446225 -0.914087
0.228986 -0.654497 -0.298039
-0.532093 0.0217069 -0.859998
0.207567 0.187968 -0.00836961
-0.329692 -0.197526 -0.669844
-0.327979 -0.194114 -0.669641
0.143028 -0.378479 -0.787192
-0.535193 -0.0306519 -0.814052
-0.418551 0.0278293 -0.856487
-0.468348 -0.105521 -0.803171
-0.409794 -0.0868261 -0.842372
-0.238448 -0.0431034 -0.680277
-0.466985 -0.0817292 -0.890723
0.350007 0.885074 -0.441902
-0.519478 -0.0573719 -0.863262
0.484403 -0.0209067 -0.899691
-0.391516 -0.0837649 -0.830883
-0.40096 0.85454 -0.289951
-0.625018 -0.904976 -0.163825
-0.28304 -0.550083 -0.551554
-0.447603 -0.112371 -0.772
-0.309232 -0.287489 -0.733952
-0.151721 -0.299597 -0.79911
-0.0504005 -0.210927 -0.821574
-0.275547 -0.199493 -0.730612
-0.192246 -0.45473 -0.669595
-0.365392 -0.180838 -0.605166
0.0495898 -0.47887 -0.0290001
-0.529308 -0.0194682 -0.906231
-0.176212 -0.473685 -0.649817
-0.121562 -0.450812 -0.804478
-0.533129 -0.0140494 -0.904774
-0.0999477 -0.340994 -0.813374
-0.407577 -0.332576 -0.455324
-0.410598 -0.325954 -0.450897
0.659874 -0.955688 -0.100076
-0.00865386 0.657543 0.31735
-0.205379 -0.223946 -0.77932
-0.112936 -0.493058 -0.71301
0.42556 0.739946 -0.198566
-0.1055 0.568073 -0.655595
-0.129146 0.900647 -0.211439
-0.293104 -0.241052 -0.735315
0.286005 -0.621541 -0.361555
-0.365035 -0.206975 -0.606056
-0.290536 -0.430466 -0.652885
-0.314002 -0.0987131 -0.651103
-0.222624 -0.274181 -0.783841
-0.307853 -0.283583 -0.734233
0.330887 1.00506 -0.46735
-0.618115 -0.974679 -0.135225
0.139628 0.510648 0.0902638
-0.400927 -0.10745 -0.702466
-0.300638 -0.263225 -0.734489
-0.261357 0.871888 -0.118896
-0.382355 -0.123466 -0.385153
-0.356224 -0.318999 -0.65056
-0.35166 -0.336735 -0.614082
-0.355732 -0.284023 -0.660306
-0.202483 -0.448619 -0.693795
-0.365974 -0.250007 -0.609219
-0.202985 -0.449103 -0.690909
-0.432067 0.372329 -0.298573
-0.203321 -0.449559 -0.688101
-0.0136198 0.141402 0.0458542
-0.35333 -0.262953 -0.665167
-0.536891 -0.907842 -0.0667972
-0.316266 -0.373094 -0.694318
0.295664 0.309074 -0.0205088
0.323048 -0.416259 -0.621921
-0.529192 -0.771868 -0.266764
-0.439865 -0.0908665 -0.865446
-0.314342 1.00203 -0.463974
-0.355238 0.810935 -0.484433
0.357092 -0.265153 -0.630372
-0.532348 -0.030702 -0.795569
-0.245102 -0.437815 -0.63924
-0.248051 -0.437893 -0.635511
-0.200958 -0.447977 -0.707156
-0.50908 0.0633874 -0.816538
-0.312358 -0.397632 -0.678826
-0.289707 -0.231478 -0.7353
0.381822 0.312565 -0.0717128
-0.313965 -0.390516 -0.682954
-0.149191 -0.198073 -0.78387
-0.270813 -0.448842 -0.594935
-0.127786 -0.468768 -0.74615
0.253581 -0.381371 -0.727013
0.00172959 0.57642 0.380825
0.614189 -0.98761 -0.0947251
0.258236 -0.384142 -0.72173
-0.198237 -0.620192 -0.582104
-0.18596 -0.415646 -0.782183
0.378972 -0.60062 -0.289886
-0.187035 -0.419267 -0.778784
-0.20675 -0.00685065 -0.66106
0.172168 -0.252632 -0.79924
-0.0691854 -0.277187 -0.829425
0.0237115 -0.301575 -0.821814
-0.470944 -0.0788454 -0.894945
-0.477899 -0.0696408 -0.900603
0.145401 0.828772 -0.0915905
-0.378843 -0.0634003 -0.390885
0.15889 -0.29102 -0.796229
0.00629993 -0.370884 -0.810397
-0.0496276 -0.446246 -0.830428
-0.118073 0.494081 -0.675765
-0.35346 0.734051 -0.518428
-0.365401 -0.200461 -0.605942
0.152717 -0.292226 -0.799669
0.399578 0.173307 -0.688843
0.402999 0.170319 -0.693577
-0.23727 -0.439148 -0.649272
-0.050213 -0.291528 -0.830001
0.302666 0.4764 -0.0351168
0.161456 -0.289862 -0.793445
0.334958 -0.0783044 -0.635981
0.0834111 -0.341894 -0.819076
0.0699661 -0.345643 -0.818655
-0.224268 -0.279144 -0.783287
0.0726686 -0.345124 -0.818893
0.178347 -0.466461 -0.683091
0.177459 0.923883 -0.256798
0.135407 -0.290915 -0.799448
0.268545 -0.388618 -0.707118
0.0086752 -0.368503 -0.811326
0.163313 -0.286321 -0.787844
-0.0176812 -0.367881 -0.80614
0.390071 -0.415109 -0.269111
-0.430579 0.188981 -0.510862
0.28013 -0.319864 -0.731084
0.392281 -0.412767 -0.277355
-0.285088 -0.0550781 -0.755819
-0.485778 -0.0497107 -0.914423
0.350441 -0.587346 -0.192213
-0.0598308 -0.245478 -0.829293
-0.483509 -0.0516596 -0.917766
-0.481434 -0.0532057 -0.920227
-0.48374 -0.0609321 -0.902741
0.435591 0.66785 -0.482258
-0.254661 -0.155564 -0.715216
-0.381395 -0.390434 -0.496127
-0.58652 -0.851274 -0.217987
-0.0202943 -0.295529 -0.829973
-0.0206792 -0.0682856 -0.761136
-0.0257331 -0.113516 -0.786628
0.107257 -0.50754 -0.710149
0.126782 -0.146889 -0.783086
0.574596 -0.853688 -0.0780748
-0.206504 0.0139162 -0.68559
-0.437887 -0.681967 -0.332678
0.13159 -0.153133 -0.785293
0.357252 -0.267337 -0.629845
-0.131621 -0.325661 0.0119652
0.356791 -0.262979 -0.630715
-0.150725 -0.251263 -0.795323
-0.126047 -0.459599 -0.766334
0.474996 -0.0174895 -0.892059
-0.147269 -0.172413 -0.774553
0.199166 0.0891993 -0.716412
-0.383252 0.877707 -0.284105
-0.362317 -0.160978 -0.605939
-0.155238 -0.331709 -0.799692
0.0364589 0.639709 0.089795
-0.122677 -0.453253 -0.798926
0.0114179 -0.511182 -0.769718
0.0118683 0.516273 0.38292
-0.137456 0.0342375 -0.0023601
0.572763 -0.982379 -0.11465
-0.0103327 -0.594497 -0.697336
0.307304 0.374619 -0.0184756
0.0436467 0.729468 -0.0117998
-0.0366356 -0.158132 -0.804413
0.0355847 -0.533097 -0.740564
0.0388264 -0.532794 -0.738835
0.325722 0.0909946 -0.0874699
-0.102388 -0.504711 -0.712006
0.0329848 -0.0894839 0.0178009
-0.327726 -0.457759 -0.560316
0.282069 -0.124911 -0.124507
-0.353579 -0.265568 -0.664476
-0.00647042 -0.37773 -0.804826
-0.26241 0.562419 -0.593954
0.125938 -0.49454 -0.702889
-0.0209835 0.243118 0.083347
-0.301611 -0.770249 -0.258311
0.26939 0.173854 -0.0362461
0.151295 -0.468263 -0.692611
-0.257175 -0.651009 -0.211753
0.148892 -0.470636 -0.687856
0.261204 -0.453114 -0.647229
-0.0243191 0.108133 -0.713227
0.272403 -0.390238 -0.701794
-0.151149 -0.233434 -0.792007
-0.225717 1.00655 -0.298054
0.0552014 -0.44039 -0.828795
0.20673 0.108839 -0.0331111
0.281344 -0.0566881 -0.688758
-0.295129 0.997486 -0.387993
0.225467 -0.518748 -0.597928
0.160763 0.790888 -0.0247368
-0.264471 -0.175188 -0.724595
0.617758 -0.852839 -0.134738
-0.0671879 -0.444622 -0.832798
-0.063168 -0.445092 -0.832633
-0.0767924 -0.443419 -0.829518
-0.634296 -0.925661 -0.147286
-0.0708289 -0.444887 -0.832069
0.215154 -0.302517 -0.785532
0.368391 0.207197 -0.635822
0.268724 -0.317425 -0.740369
0.24506 -0.444958 -0.660818
-0.543889 -0.789977 -0.256713
-0.604228 -0.875048 -0.193748
-0.151213 -0.285634 -0.798433
0.139503 -0.622995 -0.604791
-0.00764956 -0.675768 -0.629027
0.0805972 -0.519909 -0.718105
0.0988418 -0.513067 -0.713029
-0.32491 -0.638179 -0.363985
-0.367865 -0.290518 -0.612167
0.0384824 -0.508209 -0.0376662
0.348091 -0.449822 -0.177107
0.233678 -0.516487 -0.595881
0.177205 -0.507362 -0.64809
0.093928 0.8877 -0.331669
-0.307693 -0.579025 -0.388514
-0.508156 -0.0792952 -0.851743
0.234006 -0.518734 -0.582098
0.232204 -0.52008 -0.583942
0.133894 -0.291896 -0.799757
0.310454 -0.0747833 -0.733781
-0.203327 -0.00241617 -0.659094
-0.189567 -0.504638 -0.631036
0.174868 -0.467967 -0.683438
-0.385294 0.802219 -0.182482
0.4208 -0.377502 -0.404695
-0.645305 -0.980764 -0.120661
0.331884 -0.156178 -0.631206
-0.345309 0.69166 -0.528507
0.510566 -0.0703459 -0.89662
-0.167755 -0.0614296 -0.669092
0.332718 -0.162213 -0.632423
0.316876 -0.510823 -0.537706
-0.548673 -0.775308 -0.117742
0.434075 -0.0981655 -0.740512
0.175459 -0.435204 -0.739238
0.326453 0.986631 -0.511918
-0.440751 0.505146 -0.271808
0.0588141 -0.71014 -0.385875
-0.107655 -0.407482 -0.836527
0.646248 -0.948939 -0.0628372
-0.384028 0.28404 -0.327641
0.273989 -0.3182 -0.735624
0.313495 -0.406373 -0.645243
-0.0577377 0.876951 -0.218149
0.126969 -0.645682 -0.580439
0.280737 -0.0567937 -0.686248
0.316273 -0.407607 -0.641544
-0.0590117 -0.202326 0.0182447
-0.348301 0.0641473 -0.77397
0.297668 -0.421767 -0.641361
-0.147813 -0.110181 -0.718956
0.471931 -0.0767057 -0.902645
0.360155 -0.31777 -0.616405
0.195272 -0.665585 -0.476583
0.0302066 -0.301875 -0.820769
-0.0052736 -0.682908 -0.621143
0.0102376 -0.514891 -0.760181
0.347925 -0.420736 -0.569173
0.307622 1.00734 -0.388732
-0.302834 1.00036 -0.427794
0.471489 -0.773489 -0.299075
0.230971 0.193676 -0.670959
0.369723 -0.835716 -0.218457
0.267048 0.237112 -0.654245
-0.00850938 -0.582456 -0.707095
0.0338517 0.769177 -0.0657144
-0.475411 -0.855978 -0.0820615
0.349491 -0.229067 -0.634432
0.356564 -0.365338 -0.593726
0.35386 -0.087676 -0.647682
-0.466604 -0.904231 -0.168366
0.154842 -0.148752 -0.0070471
0.278305 0.241845 -0.644695
-0.189544 -0.455877 -0.668997
0.504865 -0.762721 -0.113241
-0.202038 -0.448268 -0.696963
0.115658 -0.341945 -0.814409
-0.126504 0.118544 -0.713939
-0.233942 0.574288 0.0594859
0.10367 -0.703307 -0.393013
0.288726 -0.204406 -0.115075
0.191818 -0.666672 -0.481168
0.159916 -0.689339 -0.40158
0.111294 -0.341118 -0.816193
-0.0118163 -0.604078 -0.690288
0.171622 -0.670708 -0.50681
0.503258 -0.948948 -0.141077
-0.553477 -0.927689 -0.187803
0.581271 -0.89979 -0.198522
0.585995 -0.869248 -0.074319
0.527453 -0.962065 -0.131538
-0.0932731 0.811733 -0.470054
-0.493151 -0.683887 -0.157857
0.306605 -0.766571 -0.246914
-0.389883 -0.369175 -0.48022
-0.0185926 -0.364864 -0.80967
0.551382 -0.756616 -0.186573
0.649822 -0.953924 -0.0641252
0.311029 -0.772242 -0.245533
0.282849 -0.458626 -0.618089
0.151786 0.814088 -0.0649487
0.517917 -0.780767 -0.107085
0.566663 -0.772644 -0.176883
-0.0270376 -0.714291 -0.38831
0.51337 -0.774922 -0.10942
0.137086 -0.51096 -0.65035
0.403525 -0.867195 -0.200032
-0.4312 -0.11338 -0.746714
0.530904 -0.0123543 -0.91241
-0.188972 0.901521 -0.425146
-0.356189 -0.294763 -0.657692
0.226396 -0.366527 -0.756288
0.413128 -0.872555 -0.195215
-0.632384 -0.993913 -0.0650809
0.2285 -0.521609 -0.587259
-0.50211 -0.929777 -0.155983
-0.110098 -0.496201 -0.712715
0.385024 -0.0963117 -0.672373
-0.0027459 -0.55617 -0.724604
0.358379 0.0391209 -0.798517
-0.400419 -0.367374 -0.30259
-0.58235 -0.842821 -0.223303
0.263339 -0.507228 -0.56648
-0.427487 0.702647 -0.499652
0.263044 -0.629931 -0.3714
-0.0609675 0.855124 -0.284069
0.443202 -0.00288578 -0.861761
-0.00890449 0.660753 0.224075
-0.524505 0.0467369 -0.841229
0.355108 -0.821292 -0.22656
-0.432273 0.132372 -0.489882
-0.233409 -0.0729183 -0.684982
0.31315 -0.372079 -0.105662
0.284332 -0.46274 -0.608698
0.21311 0.971245 -0.348516
0.38385 -0.604819 -0.286123
0.28445 -0.469625 -0.60526
0.0535628 -0.302338 -0.816331
-0.255688 0.594612 -0.597137
-0.227245 -0.627994 -0.230993
0.285321 -0.467704 -0.606268
0.51956 -0.0429429 -0.910978
-0.149853 -0.0977291 -0.706808
-0.508434 -0.896401 -0.228638
0.0148312 0.599542 0.113324
-0.385226 -0.14908 -0.38021
-0.460945 -0.900397 -0.171085
-0.182361 -0.494985 -0.63779
-0.317545 -0.338486 -0.716846
0.141913 -0.541007 -0.641087
-0.115232 0.514031 -0.671654
-0.00951194 -0.44517 -0.826213
-0.35655 0.805456 -0.487936
0.24705 -0.511006 -0.593876
0.355557 0.81418 -0.138223
0.326738 0.96641 -0.499726
-0.326499 0.929749 -0.27719
-0.174643 -0.593867 -0.141784
-0.250822 -0.147673 -0.710843
-0.146188 -0.159023 -0.766743
0.304812 1.00669 -0.379436
-0.184504 -0.609562 -0.158538
-0.480881 -0.0651909 -0.901623
-0.18393 -0.608395 -0.15718
-0.315875 0.935786 -0.405139
0.596563 -0.815709 -0.154122
0.421027 -0.373832 -0.419886
0.396277 -0.407687 -0.293093
0.565495 -0.843063 -0.0806277
0.587545 -0.908581 -0.188428
0.325002 -0.471226 -0.548383
0.606519 -0.935076 -0.146079
0.632553 -0.885951 -0.12169
-0.413853 -0.319701 -0.44655
-0.455907 0.706822 -0.338957
-0.220718 -0.268609 -0.783779
0.121577 -0.49835 -0.704637
0.171366 -0.500594 -0.654341
-0.331605 -0.717805 -0.156865
0.406137 -0.641364 -0.164045
-0.0156576 -0.713994 -0.387271
-0.147881 0.914993 -0.24735
0.34204 0.138209 -0.0746719
0.242545 -0.645222 -0.406263
-0.276056 -0.717728 -0.278929
0.568311 -0.981201 -0.116605
0.337586 0.125999 -0.0789323
-0.209765 0.995058 -0.300331
0.0322403 -0.0824517 0.0155962
0.560571 -0.871029 -0.226813
0.556889 -0.865975 -0.232873
-0.415062 -0.00868555 -0.493779
0.142439 -0.695412 -0.398248
0.342813 -0.809201 -0.232093
0.436409 -0.669443 -0.145204
0.330834 -0.149705 -0.629976
0.617796 -0.988151 -0.0932174
-0.0577276 -0.423679 -0.00652485
-6.45898e-05 0.581166 0.376642
0.318541 -0.487155 -0.540994
0.400854 0.447591 -0.0901042
0.398791 -0.405427 -0.300884
-0.0569516 -0.519808 -0.722251
0.244591 -0.513919 -0.574738
0.135102 -0.487713 -0.69929
0.285355 -0.167201 -0.120629
-0.535997 0.00847152 -0.867042
0.359868 0.198306 -0.0670215
0.155097 -0.671566 -0.526341
0.358634 -0.357305 -0.597001
0.40618 0.528625 -0.492173
0.315763 -0.437499 -0.120911
-0.0744137 0.837876 -0.362885
-0.241565 0.710973 0.00296301
-0.33231 0.636378 -0.549301
0.0686706 -0.437239 -0.0163719
0.179848 0.0105412 -0.0480286
-0.323562 -0.374673 -0.617594
0.0712795 -0.431372 -0.0139799
0.530432 -0.0146114 -0.913013
-0.0910152 0.569158 0.281515
0.306069 -0.32684 -0.102735
-0.259773 0.852239 -0.100947
0.362611 -0.828735 -0.222977
-0.367395 0.385611 -0.523346
0.621347 -0.917441 -0.057312
-0.584016 -0.973932 -0.12544
0.61765 -0.912328 -0.0577353
0.2337 -0.649626 -0.420435
-0.100548 -0.339896 -0.818387
-0.27236 0.925031 -0.195842
-0.0663739 -0.29605 0.0253004
-0.252989 0.488913 0.0527633
-0.391836 -0.647058 -0.352963
-0.226378 0.132327 -0.681214
-0.347843 -0.68453 -0.348166
0.0237311 -0.550994 -0.0589498
-0.183861 -0.456183 -0.647404
-0.388953 -0.396549 -0.285493
0.28453 -0.156083 -0.121837
-0.362923 -0.748346 -0.136231
-0.188642 0.93038 -0.204655
-0.357909 -0.743422 -0.139407
-0.285806 -0.221514 -0.735261
-0.367698 -0.828981 -0.214165
-0.524315 -0.896218 -0.0699788
0.26494 -0.0665166 -0.663041
-0.242407 -0.34255 -0.772363
-0.536025 -0.948187 -0.147939
0.387019 -0.0970509 -0.806271
0.346679 -0.813288 -0.230371
0.321695 -0.557226 -0.326982
0.225115 -0.6451 -0.304082
0.246971 -0.51232 -0.573032
0.278154 -0.427643 -0.652357
0.285634 0.0899831 -0.746913
-0.236225 -0.315695 -0.780032
-0.544629 0.0154961 -0.895429
0.287819 -0.449339 -0.614296
0.388096 0.352888 -0.0753163
-0.102959 -0.38808 -0.837142
-0.430826 0.817012 -0.302244
0.332515 -0.4567 -0.556639
0.334047 -0.452983 -0.558669
0.343816 -0.210124 -0.635704
0.478559 -0.722459 -0.123021
0.437489 0.78483 -0.257394
-0.547279 -0.923999 -0.192242
-0.397434 -0.0852906 -0.83504
0.114196 -0.129585 -0.778277
0.0488409 -0.711347 -0.385408
-0.0139761 -0.617433 -0.682315
0.217304 0.276854 0.0217818
-0.331302 -0.069162 -0.787766
0.284368 -0.134248 -0.674195
0.32639 -0.413773 -0.618198
0.328109 -0.413805 -0.621819
0.447501 -0.747887 -0.308567
0.331713 0.605589 -0.0560626
-0.0599014 -0.210596 0.0190297
0.4618 -0.67242 -0.234552
0.326119 1.00377 -0.33759
0.0978289 -0.371611 0.0144633
-0.249629 0.62681 -0.600646
0.520053 -0.0413535 -0.911427
0.0186862 -0.570694 -0.0742651
0.306467 -0.0811711 -0.611776
0.268389 -0.0657918 -0.660111
-0.339582 -0.073948 -0.600651
-0.199449 -0.447752 -0.723627
0.267345 0.936523 -0.208714
0.147146 -0.181536 -0.0013113
0.267338 -0.0650779 -0.660386
0.408316 -0.351862 -0.537489
-0.438132 -0.809102 -0.286451
-0.414071 0.0249937 -0.507523
0.421299 -0.371831 -0.426949
-0.184009 -0.461567 -0.666902
-0.356021 -0.299675 -0.656652
-0.0316317 -0.524421 -0.037265
-0.145626 -0.504393 -0.0472912
0.0657939 -0.443545 -0.0182884
0.198584 -0.66447 -0.471969
-0.106009 -0.400858 -0.837508
0.0867858 0.563575 0.370788
0.223089 -0.643839 -0.307022
-0.2931 -0.134796 -0.65545
0.0202047 -0.564114 -0.0688778
0.295109 -0.258278 -0.107988
0.380521 0.768375 -0.48052
-0.326497 -0.712763 -0.160575
0.271899 0.93383 -0.215327
0.624454 -0.959473 -0.122591
-0.325383 -0.46002 -0.562784
-0.393097 -0.207129 -0.36571
-0.177194 -0.466633 -0.649192
0.00108055 -0.543226 -0.73345
0.518103 0.0769708 -0.848296
-0.195696 0.282254 0.0238218
0.194473 -0.459306 -0.680662
0.113476 -0.307114 0.00935126
0.198993 -0.524646 -0.618756
-0.601503 -0.872085 -0.198096
-0.199693 0.889528 -0.470004
-0.0630044 -0.36642 0.01474
0.37195 -0.09313 -0.661535
-0.195578 0.894812 -0.45297
0.414346 0.627385 -0.138519
0.364255 0.749628 -0.525082
0.364311 0.741969 -0.526952
0.302691 0.454068 -0.0301051
0.383872 0.442544 -0.512275
0.418146 -0.360349 -0.482369
0.154012 0.915713 -0.254686
-0.00400721 0.560209 0.382271
-0.0150055 -0.635696 -0.671922
0.337567 -0.439689 -0.565526
0.00261314 0.575252 0.382067
-0.361801 -0.82509 -0.217361
0.18938 0.0447037 -0.0424546
-0.643165 -0.948149 -0.136751
0.114874 -0.300047 0.00802861
-0.18371 -0.49725 -0.63659
0.187462 -0.463277 -0.682286
0.564418 -0.876191 -0.221209
-0.456344 0.000594849 -0.600707
0.540424 -0.810416 -0.0929708
0.534488 -0.801812 -0.0971423
0.567426 -0.880417 -0.216835
0.205251 0.0653839 -0.724644
-0.0203465 0.264853 0.0930353
0.355703 -0.592851 -0.19086
0.444619 -0.903136 -0.173491
0.318837 -0.0792396 -0.742371
-0.529492 -0.0302485 -0.785205
0.00433763 0.0449681 0.0145015
0.118038 -0.655328 -0.572978
-0.13076 0.0139704 -0.00709247
0.277681 -0.612817 -0.35128
0.55757 -0.83303 -0.0826965
0.383935 0.32627 -0.0729317
0.28325 -0.471738 -0.604264
-0.243365 0.933886 -0.193688
0.269464 -0.506136 -0.56399
0.365331 0.390759 -0.52531
-0.321199 0.931307 -0.278474
0.206319 0.215423 -0.00412356
-0.237654 0.756248 -0.591316
0.302377 -0.501041 -0.551937
-0.241044 -0.11935 -0.69865
0.277843 -0.0329215 -0.133333
0.325294 -0.558724 -0.324805
0.253412 0.951956 -0.351168
0.361402 -0.0920794 -0.776545
-0.16809 0.91429 -0.31339
-0.0191725 0.285214 0.104901
0.013322 -0.0171589 0.0145395
-0.314394 -0.386423 -0.685326
-0.397308 -0.0473829 -0.512969
0.530999 -0.797013 -0.0992369
0.537481 -0.806165 -0.0947213
-0.136127 0.312176 -0.668661
-0.00289183 0.489631 0.182373
0.168878 -0.283515 -0.784993
-0.00606146 0.644235 0.190584
-0.326258 -0.190609 -0.669469
-0.121889 0.896739 -0.211841
-0.00665319 0.647192 0.196301
-0.132075 -0.150605 0.0028698
0.262644 -0.719618 -0.269542
0.336636 0.676871 -0.0842546
-0.267222 0.512993 0.0458242
-0.449881 0.140185 -0.698286
-0.164337 0.120488 0.0171721
-0.343499 -0.228097 -0.669913
-0.454448 0.136966 -0.707161
0.444852 -0.678194 -0.139618
0.275902 -0.0700786 -0.133072
-0.332125 0.071441 -0.759743
0.309443 0.0534306 -0.105206
0.166143 0.729723 0.023802
0.235838 0.111332 -0.0460573
0.330258 0.269783 -0.562707
0.304082 -0.314135 -0.102973
0.305444 0.0432924 -0.108608
-0.266621 -0.0454081 -0.745028
-0.307179 -0.0967677 -0.655637
0.254712 -0.509283 -0.569612
-0.35624 -0.292658 -0.658276
-0.234201 0.639906 0.0369299
0.0474976 -0.530615 -0.734158
0.13079 0.857704 -0.148086
0.230449 -0.368803 -0.752883
-0.425841 0.0691924 -0.467255
0.0380104 0.7535 -0.0450897
0.249039 0.220877 -0.664803
0.0119561 0.519631 0.38448
0.106012 -0.341541 0.0134682
-0.0795812 0.833428 -0.406947
-0.268213 -0.472797 -0.580492
0.0886023 -0.398683 0.00497566
-0.186373 -0.501302 -0.634374
-0.341361 -0.349984 -0.614952
0.0904257 -0.394848 0.00715784
0.371424 0.24764 -0.0685764
0.279811 0.22874 -0.027477
-0.522266 -0.732601 -0.138783
-0.249825 0.781023 -0.0471018
0.242066 -0.515738 -0.576649
-0.119985 -0.447458 -0.810802
-0.232992 0.78757 -0.583095
0.521822 -0.959559 -0.13296
0.0468336 -0.486278 -0.0306752
-0.416231 0.167693 -0.637632
0.141643 -0.6087 -0.614305
0.108618 0.566223 0.355054
0.00735714 0.559962 0.385941
-0.0396023 0.562616 0.363918
0.297942 -0.502748 -0.553722
0.352614 0.353625 -0.533756
0.310127 -0.540888 -0.205813
-0.150467 -0.534238 -0.0663553
-0.149981 -0.530552 -0.0631101
-0.102182 0.58692 -0.653571
0.0493247 -0.440968 -0.828927
-0.656644 -0.930716 -0.0872195
0.0109978 0.488366 0.370732
0.32287 0.552718 -0.0456011
-0.433493 -0.0913527 -0.860544
0.40615 0.542881 -0.114111
0.0122532 0.501099 0.37904
0.258183 -0.508676 -0.568856
0.0122794 0.494801 0.376475
-0.00244648 0.530789 0.139951
-0.114562 -0.43019 -0.827419
-0.00758497 0.652861 0.207623
-0.0944452 0.570229 0.269646
0.0438163 0.71931 -0.00133045
0.0951553 -0.381643 0.0124591
-0.119861 0.40533 -0.673093
0.0135837 -0.60189 -0.106233
-0.388742 -0.0553521 -0.559437
0.161842 0.63632 0.0699389
0.257307 0.93938 -0.192624
-0.111244 -0.419244 -0.832602
0.520103 0.0643724 -0.861133
0.0441612 0.71489 0.00406064
-0.323546 0.957409 -0.274907
0.63706 -0.938137 -0.0598335
0.214001 -0.453064 -0.677528
-0.272225 0.474934 -0.580041
-0.00563459 0.470678 0.210942
-0.355662 -0.280944 -0.660983
0.0117107 0.485535 0.368498
-0.376461 -0.638246 -0.358394
-0.198937 -0.451322 -0.669038
0.306991 0.932168 -0.344093
0.0116199 0.483421 0.366831
0.0633979 0.560886 0.381392
0.0625896 -0.450151 -0.0205617
-0.511684 -0.0717026 -0.854859
-0.306442 -0.411345 -0.670085
-0.316766 0.937634 -0.421785
-0.420064 -0.871515 -0.186908
0.25536 0.993647 -0.192949
0.268698 0.102197 -0.727706
0.363757 0.769802 -0.517648
0.317946 0.942731 -0.317899
0.510718 0.0697058 -0.858082
0.420101 -0.36557 -0.454603
-0.273096 0.470836 -0.579513
0.511359 0.066083 -0.861212
-0.578777 -0.97022 -0.127368
0.426085 0.621081 -0.483048
-0.271086 0.516508 -0.586665
-0.382714 0.816329 -0.186537
-0.521861 -0.0554258 -0.865458
-0.0600176 -0.518779 -0.72058
-0.417629 0.773821 -0.199587
0.575014 -0.890856 -0.2085
-0.0592637 0.861165 -0.273829
0.335639 0.886339 -0.178039
0.431678 0.778953 -0.244602
-0.274737 -0.0908792 -0.642735
-0.320756 -0.793002 -0.246411
-0.252041 0.799158 -0.0624479
0.401223 -0.404017 -0.308673
-0.0064685 0.46805 0.217548
-0.585337 -0.846939 -0.220691
-0.0509213 0.876019 -0.239473
0.282856 -0.134782 -0.123405
-0.0942345 0.883504 -0.213351
-0.256547 0.829171 -0.0846799
-0.451585 0.632438 -0.365806
0.130425 -0.491027 -0.70102
-0.620355 -0.898871 -0.169739
-0.122522 0.392113 -0.673731
-0.252621 0.610066 -0.599343
0.0194169 0.55921 0.38591
0.324559 0.958553 -0.476529
0.000606598 0.578922 0.378488
-0.456594 0.701807 -0.340672
0.541035 -0.745995 -0.192553
0.355264 -0.369906 -0.591774
-0.606358 -0.878666 -0.190225
0.00156945 0.57692 0.380293
0.477873 0.130882 -0.782165
-0.189977 0.265054 0.0219099
0.00102718 0.578034 0.379329
-0.0194666 -0.00638918 -0.723447
-0.0257997 -0.294495 -0.830117
-0.21389 -0.445153 -0.663868
0.313167 0.0702745 -0.764491
0.111397 0.872354 -0.195443
0.39994 0.433359 -0.0863674
0.00488314 0.847996 -0.158639
0.414337 0.162295 -0.707273
-0.0968523 0.571072 0.257934
-0.467818 -0.701097 -0.315422
0.419439 -0.0998793 -0.853687
0.304391 0.930853 -0.334785
0.348399 0.740026 -0.111929
-0.338008 -0.445492 -0.548377
0.425315 0.721562 -0.183089
0.424604 0.704772 -0.171401
-0.10779 0.88921 -0.21243
0.0212984 0.810182 -0.107438
0.16145 -0.214276 -0.79911
-0.240042 -0.114762 -0.6973
0.321922 0.97296 -0.314105
0.321474 0.979118 -0.315486
-0.408811 0.0453005 -0.478106
-0.253853 0.811358 -0.0718171
0.0879086 0.871443 -0.365418
0.169864 -0.245073 -0.798869
0.364693 0.0351367 -0.803175
-0.14836 0.914736 -0.250019
0.319987 0.980574 -0.316912
-0.579213 -0.944966 -0.0580852
0.0838741 0.842227 -0.436265
0.330199 0.584768 -0.050834
0.0840239 0.83689 -0.445447
-0.44392 0.788023 -0.313122
-0.451742 0.771451 -0.317626
-0.583069 -0.948733 -0.0569062
0.230464 -0.65097 -0.42526
0.422231 0.60502 -0.483575
-0.273187 0.335759 -0.574746
0.27632 -0.078872 -0.132122
-0.42083 -0.598829 -0.206076
0.260941 1.01145 -0.340046
0.271575 1.01471 -0.339558
0.264769 1.01419 -0.340979
-0.446576 0.619195 -0.371333
0.268412 1.01546 -0.339964
0.317509 -0.485913 -0.544844
-0.503353 -0.0849085 -0.846536
0.319079 0.99142 -0.324706
0.282507 -0.116071 -0.669491
-0.0950153 0.675548 -0.628886
0.350298 0.847785 -0.154993
0.0301619 0.780612 -0.0803864
0.522808 -0.827527 -0.274874
-0.49538 -0.00593745 -0.921914
-0.0955358 0.685712 -0.622793
0.40265 0.0168748 -0.830848
-0.0948501 0.670963 -0.631044
0.0929437 0.564987 0.36793
-0.289749 -0.128681 -0.652907
-0.0040644 0.855785 -0.180623
-0.16636 -0.586535 -0.628585
-0.262053 -0.44357 -0.606168
0.401704 -0.637169 -0.166794
-0.125616 0.380771 -0.674628
-0.0130306 0.862815 -0.206106
-0.0106414 0.862169 -0.199904
0.139024 0.658702 -0.609024
-0.244885 0.659175 -0.600129
0.0879836 0.797667 -0.506853
-0.429665 -0.674016 -0.33868
-0.256314 0.589224 -0.595889
-0.0967178 0.740708 -0.582745
-0.64563 -0.97635 -0.120076
-0.230602 -0.297474 -0.781947
-0.0985963 0.745508 -0.579202
-0.0868199 0.881454 -0.214531
0.322669 0.955418 -0.314335
0.120556 0.699243 -0.586803
0.143637 0.831872 -0.0980472
-0.0959172 0.630471 -0.644314
0.11625 -0.664712 -0.566801
0.431627 -0.646318 -0.252855
-0.214739 0.0786468 -0.696806
-0.0939804 0.647376 -0.640234
0.35225 0.839976 -0.150272
-0.451292 0.00450303 -0.582181
-0.249115 0.77449 -0.0423732
0.123337 0.69343 -0.590586
-0.320732 0.950279 -0.276047
-0.168001 0.149647 0.0175824
-0.0981425 0.774324 -0.551501
-0.523941 -0.0288657 -0.767432
-0.23702 0.76209 -0.590016
0.103801 -0.298679 -0.809838
-0.601323 -0.966531 -0.0549463
-0.409695 0.0327721 -0.847533
-0.23631 -0.0917586 -0.692246
-0.0156007 0.15871 0.0495249
0.405594 -0.0988895 -0.696306
-0.646842 -0.964334 -0.126095
0.143112 0.505729 0.089549
0.198621 0.0836447 -0.0397883
0.294236 0.0145284 -0.120093
0.632803 -0.932811 -0.0591175
-0.0480777 -0.143215 0.0177353
-0.19405 0.121005 -0.688455
0.326666 0.967645 -0.501356
-0.649058 -0.914971 -0.0836156
0.474336 0.13334 -0.776807
0.196234 0.0753058 -0.0403929
0.317877 0.067489 -0.766947
0.340961 -0.422801 -0.572319
0.321489 0.0650369 -0.768739
0.211045 0.237538 0.00440969
0.118226 -0.135262 -0.779165
0.0933637 0.770518 -0.537585
-0.532783 -0.0284734 -0.871932
-0.225971 -0.283765 -0.783009
-0.093941 0.794127 -0.500969
0.297242 -0.399835 -0.667216
0.0122123 -0.300187 -0.824194
0.382064 -0.423506 -0.245238
-0.00563908 0.463293 0.32274
-0.12197 -0.0509461 -0.0151003
0.124698 -0.667481 -0.561517
0.148283 -0.175012 -0.00331833
0.118473 -0.286592 0.00723285
-0.054322 -0.446399 -0.83182
0.204098 0.100791 -0.0341496
0.362292 0.842324 -0.484499
0.34816 0.0462943 -0.789468
-0.46843 -0.00672025 -0.641713
0.303063 0.465204 -0.0323184
-0.602884 -0.963126 -0.146971
-0.00812317 0.454898 0.258388
-0.635177 -0.928336 -0.146137
0.660557 -0.960138 -0.0992356
-0.171909 -0.0590941 -0.671616
0.635254 -0.968325 -0.115768
0.177224 -0.43005 -0.743699
0.451026 -0.0934745 -0.766117
-0.337151 -0.723013 -0.153456
0.4468 -0.0948428 -0.760093
0.341728 -0.416802 -0.574594
0.400266 -0.347212 -0.557771
-0.239845 0.949516 -0.366891
-0.00899822 0.662809 0.288103
0.346587 0.731394 -0.107999
0.422964 0.00755181 -0.844169
0.245609 1.00546 -0.342261
-0.246168 0.749402 -0.0221049
0.50132 -0.0238834 -0.91166
0.525358 -0.030215 -0.91373
0.483366 -0.0883897 -0.834513
0.323723 0.957067 -0.465036
-0.395385 -0.0481713 -0.515807
0.00025167 -0.298803 -0.826794
0.490157 0.115469 -0.805541
0.492843 0.111504 -0.811027
-0.270427 -0.471181 -0.581221
0.410826 0.01346 -0.836637
-0.442696 0.648199 -0.244514
0.438316 -0.097177 -0.747441
-0.277701 0.405269 -0.578365
0.369686 -0.0933384 -0.786231
-0.0982106 0.571404 0.245336
0.466199 -0.0892977 -0.790391
0.474316 -0.71598 -0.124486
-0.404751 -0.583564 -0.217715
0.322722 0.959911 -0.313958
0.509032 0.0726879 -0.854474
0.440443 0.149754 -0.735431
-0.0160164 0.862571 -0.211292
0.515194 -0.0525888 -0.906637
-0.269195 0.535317 -0.590499
0.494413 -0.0239477 -0.905641
0.214625 0.964305 -0.349429
0.37833 -0.094976 -0.666662
0.376067 -0.430203 -0.229372
0.455056 -0.0914584 -0.772369
-0.532777 -0.903719 -0.0677837
-0.119456 0.409815 -0.673028
0.135989 -0.290528 -0.799754
0.37864 -0.0947139 -0.796011
0.398849 0.0186583 -0.828276
-0.517965 -0.027368 -0.747955
0.126798 0.862355 -0.161966
-0.26247 1.00543 -0.362923
0.386445 0.339477 -0.0737211
0.239939 0.117434 -0.045634
0.400629 0.462116 -0.0949157
0.110772 -0.320989 0.0115879
0.301697 0.335558 -0.0190507
-0.0974645 0.756127 -0.571693
0.25766 -0.431532 -0.661591
-0.223549 0.378505 0.0467246
0.485525 -0.0873108 -0.84045
-0.0698399 -0.515607 -0.71739
0.488099 -0.087211 -0.846344
0.0662643 0.13804 -0.737539
-0.0406914 -0.446693 -0.830364
0.243613 0.963999 -0.170736
0.360928 -0.5981 -0.188569
0.0548326 0.136668 -0.738793
-0.13825 0.291981 -0.669352
0.378509 0.196563 -0.652839
0.104611 -0.114271 -0.779824
-0.217431 1.00438 -0.299333
-0.355848 -0.297293 -0.657032
0.458005 0.142131 -0.755537
0.131536 -0.40882 -0.81265
0.402507 0.514659 -0.494707
-0.332943 -0.204514 -0.670121
-0.272955 -0.446902 -0.62061
0.355017 0.0420579 -0.796099
0.522707 -0.0372547 -0.912769
-0.280533 0.222807 -0.629288
0.325808 1.00969 -0.445819
0.181213 -0.413754 -0.755966
0.325666 0.960888 -0.484779
0.229297 0.131234 -0.688918
0.315475 0.936421 -0.395344
-0.404003 -0.340175 -0.460309
0.345892 0.86439 -0.163478
-0.22264 0.133324 -0.681591
-0.449182 -0.825703 -0.278728
0.232282 0.128855 -0.691111
-0.53334 0.0166356 -0.863268
-0.594954 -0.981155 -0.122502
0.34558 0.0471795 -0.786962
-0.444601 0.144242 -0.688742
0.400734 -0.0982165 -0.690091
0.308071 -0.338998 -0.102729
0.333309 -0.0844228 -0.752916
-0.103572 0.119201 -0.716826
0.332709 0.62676 -0.0624543
-0.0619496 -0.290508 -0.826979
0.492291 -0.942046 -0.145338
-0.40571 -0.343056 -0.31628
0.498902 -0.0241347 -0.909217
0.417573 -0.386064 -0.376507
0.55705 -0.761814 -0.1833
-0.332385 0.639051 -0.547532
-0.196149 -0.509355 -0.625453
-0.257526 0.584578 -0.595337
-0.107625 -0.499038 -0.712238
0.281017 -0.109569 -0.668694
