ply
format ascii 1.0
element vertex 212
property float x
property float y
property float z
end_header
-0.0744431 1.01888 -0.238695
-0.0660514 1.04169 -0.24805
-0.0719237 1.02504 -0.241213
0.00197089 0.930432 -0.0283003
-0.0696134 1.03119 -0.243487
-0.0880283 1.11601 -0.229374
-0.0503724 0.932165 -0.125926
-0.0566495 1.06751 -0.256628
0.0342376 1.09832 -0.065882
-0.042157 1.09508 -0.259487
-0.0799578 1.00619 -0.233045
0.0128429 0.955542 -0.0352162
-0.18152 0.992089 -0.142105
0.028019 1.10239 -0.0624965
0.0308459 1.00541 -0.055519
-0.0813679 1.15834 -0.00214458
-0.0833126 1.15906 -0.0018639
-0.0632009 0.933423 -0.147688
0.0447494 1.05089 -0.0712241
-0.0679213 1.0366 -0.245822
-0.139992 0.973239 -0.172803
-0.0138728 1.08945 -0.219186
-0.08292 1.11262 -0.233937
0.0149658 1.10963 -0.0561585
0.0551767 1.08387 -0.084687
0.0456878 1.08609 -0.124418
-0.0823708 1.14805 -0.0190815
-0.0321758 1.09228 -0.247666
-0.0556766 1.09326 -0.250878
-0.00930858 1.08921 -0.21159
-0.0844973 0.940476 -0.179978
-0.00715707 1.11975 -0.0444518
-0.211101 1.04169 -0.117084
-0.0800952 1.15729 -0.00234109
-0.054692 1.07175 -0.258296
-0.0235878 1.09069 -0.234928
-0.0604845 1.09628 -0.249428
-0.119628 1.1301 -0.203168
0.0570823 1.0832 -0.087005
-0.155652 1.15639 -0.142589
0.0337762 1.01501 -0.058766
-0.188336 1.02644 -0.0496921
-0.157971 1.15658 -0.146854
-0.145477 1.15474 -0.123906
-0.160241 1.15688 -0.151041
-0.0395881 1.09435 -0.256632
-0.101277 1.12229 -0.218661
-0.152985 1.15584 -0.137654
-0.0813838 1.14642 -0.0138313
-0.150646 1.15535 -0.133257
0.0340288 1.08665 -0.143725
0.050929 1.08606 -0.11616
-0.162165 1.14174 -0.157586
0.0100467 0.948764 -0.0328164
-0.0362838 1.0935 -0.252894
-0.0471958 1.08258 -0.259061
-0.0876063 1.13698 -0.00525072
-0.165269 1.15324 -0.168606
-0.089912 1.14981 -0.0357366
-0.159307 1.14597 -0.158369
-0.193159 1.0271 -0.0588089
-0.138118 1.15406 -0.113214
-0.148969 1.14392 -0.176139
0.0472029 1.05888 -0.074119
0.0541944 1.08094 -0.0830663
-0.13547 1.15351 -0.108761
-0.178318 1.11023 -0.143752
0.000480872 1.11671 -0.0485886
-0.101526 1.15058 -0.0555053
-0.167988 1.15454 -0.170318
-0.0774095 1.1087 -0.238519
-0.0817361 1.14762 -0.0174707
-0.0992737 1.11092 0.00213206
-0.00790286 0.927341 -0.0300959
0.0530202 1.07731 -0.0812029
-0.11353 1.15064 -0.0737191
-0.0583027 1.06317 -0.254807
-0.214223 1.03067 -0.101737
-0.104334 1.10174 0.00456297
0.0487176 1.08969 -0.0747714
-0.206577 1.01047 -0.119209
-0.043488 1.08929 -0.259434
-0.135414 1.13619 -0.188391
-0.161837 1.15148 -0.169312
-0.0437434 1.08764 -0.260174
-0.126075 1.1516 -0.0929424
-0.0640378 1.04718 -0.249913
-0.115661 1.08287 0.0095489
-0.17027 1.15443 -0.168308
-0.187566 0.996242 -0.136643
-0.112643 1.12842 -0.209139
-0.167982 1.1539 -0.168443
-0.0454327 1.08994 -0.258607
-0.203982 1.05472 -0.12124
-0.104353 1.15023 -0.0595174
-0.195871 1.00117 -0.128642
0.0219267 1.10576 -0.059373
0.0511518 1.07204 -0.0791133
-0.079906 0.938318 -0.172929
0.0491031 1.06611 -0.0767478
-0.08251 1.00058 -0.231029
-0.0822204 1.14887 -0.0178254
-0.0848979 1.14365 -0.00728199
-0.211106 1.02926 -0.0942407
-0.0502859 1.07888 -0.259117
-0.207383 1.04773 -0.118537
-0.0525509 1.07587 -0.259471
-0.0869678 1.14871 -0.0286527
-0.0148416 0.925153 -0.0481537
-0.0599526 1.0584 -0.252726
-0.161673 0.981439 -0.158396
-0.129054 1.15231 -0.0981437
-0.177968 0.990363 -0.14514
-0.0831397 1.15891 -0.0015865
-0.130776 0.969546 -0.178294
-0.0692682 0.934879 -0.157241
-0.0280284 1.09115 -0.241345
-0.14887 0.978054 -0.167701
-0.1257 0.967039 -0.181654
-0.0896391 0.986083 -0.226253
-0.113445 0.960315 -0.188431
0.00474873 0.936112 -0.029618
-0.069393 1.102 -0.244927
-0.0116811 0.924796 -0.0404621
0.0158566 1.08662 -0.172487
-0.0228922 0.927419 -0.0666342
-0.117517 0.961898 -0.186374
-0.0991774 0.963315 -0.2147
-0.061964 1.05278 -0.251216
-0.00886121 0.926252 -0.0334316
-0.12239 1.15118 -0.0874676
0.0365907 1.02428 -0.0620791
-0.102517 0.956536 -0.191228
-0.0925703 0.950025 -0.1933
0.0606123 1.08593 -0.10073
-0.165833 0.982757 -0.155276
-0.109917 0.95954 -0.189645
-0.0926184 0.979635 -0.223151
-0.100958 0.958579 -0.212158
-0.018818 0.926056 -0.0574049
-0.0278795 0.940657 -0.0185167
-0.0770912 1.01272 -0.235873
-0.204721 1.00884 -0.120494
-0.116435 1.15094 -0.0785326
-0.10547 0.958499 -0.191039
0.00737348 1.11299 -0.0521599
-0.0940815 1.1194 -0.224112
-0.170032 0.984973 -0.151811
-0.0997127 0.95469 -0.191158
0.00934963 1.08708 -0.182775
-0.168568 1.13119 -0.15288
-0.0849223 1.14835 -0.0237669
-0.095098 1.11951 -0.000534684
0.0445557 1.09238 -0.0723297
-0.184534 1.09451 -0.13787
-0.171906 1.12469 -0.149888
0.00224402 1.08749 -0.193272
-0.0379719 0.931554 -0.102231
0.0394824 1.03315 -0.0652529
0.0397542 1.08634 -0.134147
-0.094568 1.15018 -0.043772
-0.0043508 1.08811 -0.203332
-0.188257 1.08638 -0.134413
0.0224 1.08665 -0.162114
-0.0857666 1.14841 -0.0256842
-0.107173 1.12583 -0.213878
-0.174187 1.15478 -0.176651
-0.103209 0.95154 -0.208725
-0.052965 1.09152 -0.251446
-0.0455037 1.08478 -0.259761
-0.192186 1.07807 -0.130881
-0.0749286 0.936691 -0.165918
-0.165554 1.13679 -0.156057
-0.0813239 1.14707 -0.0158338
0.0559494 1.08598 -0.108252
-0.0915182 1.12907 -0.00352305
-0.173999 0.988239 -0.148483
-0.181456 1.10253 -0.140551
-0.193049 0.999653 -0.131363
-0.135396 0.971359 -0.175617
-0.196173 1.06978 -0.127648
-0.0921789 1.15002 -0.0396767
-0.083609 1.14827 -0.0212476
0.00758624 0.942252 -0.0309344
-0.175154 1.11763 -0.146586
-0.148183 1.15501 -0.128682
-0.0439891 0.932102 -0.114103
-0.0963191 1.1505 -0.0470431
-0.048802 1.08072 -0.259001
0.0400729 1.09498 -0.0694038
-0.0974405 0.952999 -0.191464
-0.173653 1.15561 -0.175081
-0.0952338 0.951446 -0.19224
-0.102316 0.954587 -0.210236
-0.0188118 1.08997 -0.227277
-0.110497 1.15019 -0.0686162
0.0420594 1.04179 -0.0680147
-0.140527 1.13922 -0.183903
-0.121627 0.96432 -0.184157
-0.0736157 1.10534 -0.241885
-0.0314912 0.942803 -0.0167012
0.0283761 1.08655 -0.152681
-0.144358 1.14167 -0.180037
-0.119497 1.1511 -0.0832982
-0.096701 0.969259 -0.217879
-0.132263 1.15296 -0.103507
-0.183315 1.02675 -0.0405626
-0.0865616 0.992592 -0.228624
-0.142456 1.15471 -0.119314
-0.0565316 0.933024 -0.13729
-0.0815115 1.14723 -0.0151986
-0.0948664 0.974186 -0.220388
