ply
format ascii 1.0
element vertex 188
property float x
property float y
property float z
end_header
0.208693 1.15582 -0.512301
0.222527 1.17193 -0.517507
0.215834 1.16311 -0.515624
0.172154 1.21968 -0.572228
0.181327 1.1401 -0.442457
0.229284 1.21937 -0.513298
0.229017 1.20674 -0.515686
0.234384 1.26466 -0.406527
0.233446 1.2684 -0.406879
0.165113 1.17281 -0.538905
0.212259 1.29094 -0.41005
0.219731 1.28479 -0.409051
0.165558 1.32018 -0.414843
0.226833 1.23051 -0.51087
0.163316 1.321 -0.415346
0.176216 1.32077 -0.425991
0.183173 1.31145 -0.415427
0.185612 1.31051 -0.415234
0.196678 1.30293 -0.414077
0.198831 1.30172 -0.412918
0.180933 1.26942 -0.567537
0.210045 1.29277 -0.41058
0.214701 1.28879 -0.409799
0.1593 1.15414 -0.487026
0.142809 1.31232 -0.443186
0.183079 1.28236 -0.560606
0.164342 1.16843 -0.5316
0.166145 1.17893 -0.545812
0.0268766 1.25185 -0.434734
0.187072 1.32661 -0.495748
0.131728 1.31473 -0.440543
0.217495 1.28633 -0.409289
0.127167 1.3157 -0.43953
0.227672 1.19399 -0.517485
0.0795061 1.31569 -0.49755
0.167011 1.18529 -0.552861
0.149496 1.30686 -0.432926
0.22578 1.27933 -0.408596
0.232334 1.25873 -0.405466
0.200253 1.30047 -0.4119
0.233167 1.26136 -0.406329
0.0649118 1.29647 -0.43669
0.0573313 1.29201 -0.436692
0.175901 1.24338 -0.573655
0.17913 1.30941 -0.447931
0.117275 1.31601 -0.437262
0.111566 1.31457 -0.436629
0.183463 1.30571 -0.455083
0.122432 1.31619 -0.438379
0.0252246 1.23567 -0.435565
0.0257184 1.22742 -0.436054
0.200763 1.28555 -0.477588
0.189432 1.30058 -0.46305
0.176199 1.32042 -0.429628
0.156337 1.30414 -0.440409
0.202618 1.29949 -0.411709
0.0716158 1.30786 -0.505566
0.0876541 1.32206 -0.489727
0.178668 1.25673 -0.571973
0.0959101 1.32807 -0.481468
0.0456228 1.22747 -0.541914
0.0456664 1.21275 -0.543459
0.184807 1.29355 -0.551963
0.0912544 1.16602 -0.37269
0.0329415 1.20423 -0.442603
0.164133 1.29409 -0.418033
0.121151 1.24336 -0.363176
0.0299003 1.21156 -0.439826
0.0565775 1.16708 -0.54127
0.135267 1.31377 -0.441363
0.0930558 1.17353 -0.368543
0.0454059 1.17039 -0.451988
0.0533164 1.1558 -0.457853
0.0870275 1.30842 -0.43555
0.039177 1.18998 -0.447267
0.18665 1.32952 -0.483198
0.152178 1.28233 -0.401591
0.0704047 1.12595 -0.470407
0.2225 1.28253 -0.409025
0.162582 1.16073 -0.518068
0.12108 1.3292 -0.456476
0.167111 1.29762 -0.419756
0.160416 1.15738 -0.508933
0.139413 1.31304 -0.442606
0.2006 1.15089 -0.508017
0.0985706 1.16104 -0.423886
0.07473 1.13718 -0.532982
0.19453 1.29316 -0.470692
0.105526 1.33112 -0.470777
0.152715 1.30669 -0.446
0.0716243 1.30026 -0.435922
0.173975 1.2311 -0.573779
0.204757 1.29755 -0.411315
0.0353221 1.19683 -0.445209
0.222927 1.24287 -0.505457
0.0930679 1.14957 -0.393147
0.187452 1.31886 -0.518455
0.187082 1.31188 -0.530711
0.0680176 1.14534 -0.536355
0.094551 1.16435 -0.421535
0.0586846 1.28679 -0.520424
0.0605393 1.14019 -0.4638
0.159946 1.15612 -0.501237
0.169137 1.30039 -0.420197
0.160296 1.29059 -0.413363
0.0918063 1.15457 -0.38539
0.16373 1.16512 -0.52447
0.0478724 1.19673 -0.54429
0.15687 1.28765 -0.407986
0.187577 1.30948 -0.415414
0.151324 1.30416 -0.430427
0.0498208 1.2591 -0.53318
0.187331 1.3233 -0.506693
0.1913 1.1474 -0.502789
0.160552 1.15549 -0.48102
0.15481 1.30455 -0.442839
0.164254 1.14117 -0.440015
0.186523 1.1408 -0.442825
0.0509675 1.28674 -0.437567
0.168166 1.19276 -0.558634
0.109913 1.15328 -0.428976
0.169274 1.20051 -0.564178
0.206877 1.2752 -0.486364
0.146187 1.14489 -0.436661
0.0659829 1.13314 -0.467212
0.0793657 1.30433 -0.435748
0.132703 1.14606 -0.434336
0.132221 1.25959 -0.374751
0.0945718 1.14468 -0.400037
0.0651664 1.29754 -0.511721
0.0744479 1.1211 -0.473356
0.218265 1.25454 -0.499885
0.142184 1.27167 -0.387548
0.126695 1.25198 -0.368588
0.124139 1.14788 -0.43267
0.147382 1.2778 -0.394324
0.159175 1.15423 -0.493505
0.14827 1.13916 -0.473975
0.1036 1.31306 -0.43637
0.0422976 1.17956 -0.449802
0.153294 1.14369 -0.437535
0.175576 1.13993 -0.441941
0.11664 1.15033 -0.430837
0.0954313 1.18311 -0.364318
0.169751 1.14032 -0.44101
0.0347086 1.26636 -0.435451
0.182309 1.14572 -0.496964
0.0479895 1.24286 -0.536543
0.0533254 1.27448 -0.527976
0.0905807 1.15995 -0.377925
0.142346 1.14127 -0.48309
0.241356 1.25846 -0.41384
0.0786442 1.17803 -0.412461
0.149123 1.14067 -0.471956
0.103658 1.15713 -0.426551
0.228794 1.2758 -0.40802
0.0811069 1.13103 -0.530423
0.170379 1.20972 -0.568635
0.0494854 1.16431 -0.454228
0.111352 1.22451 -0.358198
0.0849516 1.17136 -0.417353
0.0619895 1.15589 -0.538937
0.186389 1.30358 -0.542576
0.157877 1.30431 -0.438357
0.104123 1.12505 -0.483444
0.231552 1.27211 -0.407485
0.162277 1.15817 -0.474166
0.226065 1.18233 -0.517896
0.140926 1.14552 -0.435894
0.051867 1.18097 -0.543215
0.0304882 1.2591 -0.435036
0.106664 1.21405 -0.357568
0.153752 1.30534 -0.44469
0.0954501 1.31105 -0.436139
0.0980057 1.19367 -0.359987
0.12772 1.13662 -0.472644
0.102 1.20397 -0.358224
0.0565409 1.14691 -0.460868
0.0898687 1.16801 -0.419386
0.0456436 1.28064 -0.437502
0.137222 1.26613 -0.381137
0.0403059 1.27412 -0.436484
0.116409 1.2351 -0.359986
0.114343 1.32961 -0.461605
0.213216 1.2651 -0.493951
0.232247 1.25645 -0.404687
0.189263 1.30725 -0.415848
0.163142 1.15847 -0.46616
