ply
format ascii 1.0
element vertex 562
property float x
property float y
property float z
end_header
0.107885 0.911944 -0.422396
0.110361 0.91206 -0.422789
0.198076 0.96744 -0.457048
0.199737 0.957952 -0.456475
0.200187 0.955453 -0.456072
0.0316804 0.961013 -0.378742
0.0380836 0.979213 -0.377198
0.0369439 0.976657 -0.375104
0.0445682 0.923396 -0.372822
0.0736458 0.919749 -0.414834
0.0668032 0.924309 -0.413353
0.0468419 0.91772 -0.368453
0.0878877 0.842877 -0.31336
0.0891666 0.842449 -0.311424
0.100062 0.84804 -0.291186
0.114551 0.899977 -0.26538
0.0538379 0.89586 -0.355785
0.195079 0.974277 -0.457455
0.0521597 0.901727 -0.35954
0.0948712 0.844043 -0.301598
0.0428122 0.907867 -0.227089
0.123852 0.959744 -0.254355
0.118807 0.913286 -0.256434
0.122916 0.940829 -0.251961
0.00961105 0.90169 -0.326703
0.00905091 0.89786 -0.319488
-0.00417791 0.889245 -0.248037
0.123255 0.902216 -0.2707
0.112372 1.00361 -0.268789
0.0110195 0.923606 -0.351159
0.0109973 0.917976 -0.346073
0.0404079 0.982988 -0.383013
0.086003 0.916223 -0.416867
-0.0094809 0.926608 -0.365873
-0.00993064 0.916477 -0.361454
0.154565 0.918874 -0.296972
0.159648 0.921669 -0.304662
0.0357056 0.97525 -0.373055
0.0874547 1.05869 -0.289395
0.0401306 1.05884 -0.409615
0.0669717 1.08943 -0.417506
0.183154 0.947429 -0.356139
0.16428 1.05909 -0.446338
0.193597 0.968951 -0.407359
0.128728 0.913962 -0.427516
0.18559 0.950753 -0.36519
0.145273 1.07548 -0.440596
0.153107 1.00298 -0.54076
0.143314 1.00689 -0.55209
0.170374 0.998605 -0.511641
0.181084 0.994963 -0.486735
0.179937 1.03249 -0.45487
0.189247 0.988699 -0.46034
0.190515 0.987481 -0.455114
-0.0234863 1.01418 -0.597546
0.0382152 1.01852 -0.597999
0.180341 0.943758 -0.346994
0.182819 0.994423 -0.481781
0.0437787 1.01812 -0.596369
0.0625358 1.01597 -0.594124
0.178509 0.995333 -0.491716
0.186386 0.930964 -0.449076
0.031664 1.01905 -0.598574
0.0730493 1.01499 -0.589212
0.182074 1.02731 -0.455522
0.177275 1.037 -0.454078
0.0244622 0.934335 -0.568047
0.129781 1.08614 -0.435642
0.118785 1.09153 -0.43207
0.121794 1.09103 -0.432752
-0.0460749 1.07975 -0.438272
-0.0423098 1.07711 -0.435228
-0.0519224 1.08145 -0.442996
0.0588988 1.016 -0.595242
0.0559081 1.01607 -0.59586
-0.0916233 1.0794 -0.476667
0.10248 0.913216 -0.421135
0.00680256 1.08211 -0.564896
-0.0319341 1.01467 -0.595447
0.0346661 1.01878 -0.59843
0.0266725 1.01867 -0.597948
0.0228183 1.01778 -0.597506
0.191576 1.00029 -0.458406
0.0314248 1.02507 -0.40505
0.031622 1.01752 -0.404244
0.0350127 0.990388 -0.410245
-0.0951781 1.01399 -0.576239
-0.104986 1.01321 -0.571501
-0.0483672 1.01507 -0.591151
-0.0260329 1.01437 -0.596835
-0.0109736 1.01082 -0.599002
-0.0289071 1.01455 -0.596166
0.103857 0.860275 -0.277205
-0.130667 1.05236 -0.520123
-0.200967 0.99527 -0.465681
-0.197564 0.997583 -0.476024
-0.193485 1.00019 -0.483337
-0.195098 0.999716 -0.480947
-0.198637 0.996663 -0.472548
-0.203149 0.995038 -0.459468
-0.197232 1.00858 -0.461873
-0.20767 0.992687 -0.446111
-0.183448 1.00412 -0.494698
-0.136184 1.01082 -0.54973
-0.0103924 0.993575 -0.399478
-0.170649 1.00753 -0.511192
0.19926 0.946598 -0.454775
-0.166516 1.00891 -0.517381
-0.0821297 0.927028 -0.50238
-0.025977 1.05435 -0.302844
-0.0867909 1.08055 -0.473422
-0.129264 0.936218 -0.535023
-0.228299 0.976576 -0.388522
0.191948 0.964823 -0.398848
-0.0108224 1.02401 -0.338996
-0.149413 1.06023 -0.32279
-0.0590318 0.983599 -0.191492
0.0296652 0.98908 -0.415951
-0.0601122 1.08142 -0.448857
-0.0593236 0.988989 -0.194327
0.0482105 0.914007 -0.366104
-0.0214368 1.00605 -0.383013
-0.0550772 0.877286 -0.313192
0.1836 0.992671 -0.475984
0.174882 1.04143 -0.453432
-0.0125685 0.995972 -0.397264
-0.0103886 0.99453 -0.401984
-0.00842995 1.01587 -0.344083
-0.0148868 0.997796 -0.396678
0.198937 0.961197 -0.456965
0.03721 1.05109 -0.408122
-0.0557441 1.01275 -0.216485
-0.0172649 1.04188 -0.324153
0.0992032 1.03858 -0.276245
-0.0309527 1.01427 -0.397541
-0.22916 0.975071 -0.38459
-0.128015 0.921467 -0.445032
-0.108171 1.0129 -0.569267
-0.127649 1.05529 -0.516202
-0.0112119 0.967755 -0.372484
0.136152 1.00744 -0.557452
-0.0105175 0.949074 -0.372458
-0.201674 0.959382 -0.269716
-0.200902 0.956813 -0.268956
-0.00412976 1.06269 -0.45222
-0.138866 0.94438 -0.542003
0.0780855 1.06403 -0.303367
-0.0731339 0.949221 -0.203697
-0.058378 0.996243 -0.199607
-0.0823473 1.08267 -0.469511
0.0470371 1.01758 -0.595474
-0.220871 0.954229 -0.311199
-0.0206952 0.892197 -0.344975
-0.148325 0.963857 -0.549541
-0.1669 0.934713 -0.253189
-0.189542 1.0236 -0.287815
-0.177468 0.945467 -0.250529
-0.142862 0.957654 -0.225785
0.0661648 1.0156 -0.592495
-0.14401 1.00931 -0.542827
-0.128641 1.06938 -0.336582
-0.11866 0.959143 -0.210574
-0.231262 0.970012 -0.363146
-0.107245 0.896458 -0.27589
0.125893 1.0895 -0.433617
-0.201598 0.993671 -0.272307
-0.200389 0.968963 -0.270632
0.0953257 0.896256 -0.257472
-0.0400967 1.0594 -0.268188
0.109174 1.00922 -0.270773
0.0594178 0.877169 -0.345117
0.0807502 0.847129 -0.321788
-0.0120758 0.909735 -0.358073
-0.162427 0.931847 -0.254483
-0.00661888 0.902539 -0.227807
-0.00438344 1.08126 -0.483125
0.114447 0.997872 -0.267923
0.120196 0.981565 -0.260517
-0.223166 0.956137 -0.316627
0.160529 1.0008 -0.529112
0.186998 0.989797 -0.465538
0.0965868 1.04367 -0.277895
0.0982112 0.845527 -0.295254
0.0936602 1.0508 -0.282484
0.0107307 1.01293 -0.588701
0.00473187 0.962517 -0.367367
-0.0112534 0.955225 -0.372923
-0.043567 0.940574 -0.414873
-0.0121663 0.961338 -0.372914
0.121622 0.931012 -0.253375
0.0321153 0.989521 -0.413125
-0.0118462 0.971854 -0.371001
-0.0118858 0.96549 -0.372508
-0.0135968 0.977597 -0.376363
-0.00322698 1.05383 -0.447028
-0.00235499 0.994486 -0.360157
-0.0753079 1.08398 -0.462515
-0.012584 0.975678 -0.374347
0.146212 1.00605 -0.548582
-0.183176 1.02676 -0.454041
-0.0571338 1.00271 -0.205201
-0.0695215 1.01447 -0.585598
-0.00912459 0.935308 -0.368649
-0.0513324 1.04137 -0.240075
-0.00988045 0.945307 -0.371656
0.0497823 1.07238 -0.412914
0.175416 0.996368 -0.49687
0.125614 1.00923 -0.561298
-0.0366839 1.01864 -0.398665
0.19698 0.970918 -0.457276
-0.00928463 0.942804 -0.370897
0.193984 0.981584 -0.43798
-0.00892064 0.939182 -0.369814
-0.216081 0.951525 -0.301196
-0.205977 0.948778 -0.280299
-0.103374 0.923366 -0.436462
0.0473262 1.06844 -0.412217
0.0331199 0.956918 -0.378213
0.125527 0.913411 -0.426684
-0.0203374 0.997805 -0.376229
-0.0753311 1.03645 -0.408636
-0.210025 0.948873 -0.286229
0.0313535 0.970855 -0.369894
-0.187549 1.00233 -0.491065
-0.194948 1.0181 -0.282364
-0.0124159 0.963403 -0.372644
-0.054364 1.02788 -0.402764
-0.0574756 0.958213 -0.190459
0.190736 0.961251 -0.390732
0.0086846 0.944778 -0.363364
0.189594 0.958212 -0.38218
-0.161681 1.00902 -0.523568
-0.231322 0.965278 -0.344708
-0.231634 0.966 -0.349172
0.0878132 1.01438 -0.582364
-0.0398121 0.880553 -0.326605
0.0392184 0.982112 -0.379742
-0.0852955 1.0146 -0.580577
-0.231774 0.967617 -0.354954
-0.109153 1.04579 -0.420389
0.105013 0.898367 -0.261099
-0.123061 1.07108 -0.339979
-0.111203 1.01258 -0.5674
0.0536417 0.902612 -0.23366
0.11021 1.0122 -0.570474
-0.143003 1.02757 -0.536576
-0.0549254 1.02062 -0.223949
-0.18653 1.02721 -0.291042
-0.0124879 0.988589 -0.390809
-0.0882394 1.01448 -0.579374
-0.0289285 1.05598 -0.296296
-0.00501498 0.900424 -0.233709
0.0971922 0.844724 -0.297322
0.162112 0.918007 -0.439558
0.0873048 1.09713 -0.422186
-0.230233 0.972573 -0.376484
0.193145 0.97348 -0.416994
0.194572 0.977532 -0.426071
0.143183 0.91583 -0.432946
-0.204717 0.984174 -0.268724
-0.0403797 1.01486 -0.593189
-0.199881 0.998786 -0.274133
-0.0443066 0.935998 -0.211505
-0.0631976 0.877282 -0.306468
-0.201832 0.994953 -0.462531
-0.203962 0.978742 -0.268422
0.0509838 0.906036 -0.361496
0.103856 1.02258 -0.273421
0.0242551 0.931514 -0.558915
0.0238542 0.927986 -0.548249
0.121576 0.913575 -0.425725
-0.134051 0.939816 -0.538439
-0.0049933 0.89793 -0.237876
-0.0139724 0.927089 -0.214461
-0.0790783 0.952168 -0.204289
-0.209416 0.991802 -0.441596
0.168606 1.05353 -0.449718
-0.0217425 0.928848 -0.213887
-0.214096 0.98741 -0.426901
0.129852 1.00852 -0.55915
-0.225006 0.958079 -0.321333
-0.105443 0.958243 -0.205778
0.0387703 0.939065 -0.378254
0.0243819 0.989396 -0.419605
-0.0149095 1.03655 -0.329914
0.0690939 0.858476 -0.333965
0.0527122 1.0759 -0.41304
0.168484 0.931788 -0.320997
0.0291093 1.01907 -0.598343
0.118928 0.987763 -0.263178
-0.0116959 0.957918 -0.372946
0.0408799 0.988877 -0.402174
-0.145384 0.955847 -0.54705
0.0425177 0.986369 -0.394044
-0.0579034 0.965045 -0.188685
0.172483 1.04564 -0.452803
-0.152027 0.926878 -0.256246
-0.176898 0.954057 -0.247756
0.0365092 0.910641 -0.225217
-0.157476 1.00944 -0.529164
0.116831 0.993347 -0.266406
0.185348 1.01667 -0.456351
0.12109 0.924475 -0.253875
-0.0260047 1.01461 -0.38359
0.026901 0.989576 -0.417743
-0.186307 0.957083 -0.251543
0.120713 0.921389 -0.254089
0.0450928 1.06504 -0.411639
-0.174099 1.04477 -0.30387
0.0251617 0.938159 -0.578575
-0.19651 0.949482 -0.267722
0.025347 0.944326 -0.595079
0.134097 1.0823 -0.437879
0.0371669 0.989486 -0.408038
-0.0360522 0.932873 -0.21216
0.0798032 1.09528 -0.421528
0.0392574 0.988771 -0.40525
-0.0117219 0.974439 -0.371658
-0.170585 0.938386 -0.252372
0.124064 0.954642 -0.253574
-0.179718 1.00677 -0.498372
-0.111201 1.07103 -0.496744
0.116875 0.913321 -0.424315
0.0333967 0.97321 -0.37092
0.0428646 0.984714 -0.390388
-0.000221718 0.922173 -0.215592
-0.0586791 0.97693 -0.189917
0.190107 1.00613 -0.457838
0.0310319 0.912955 -0.223213
0.132991 0.915327 -0.429087
-0.0591453 0.993272 -0.196775
-0.198471 0.951937 -0.268015
0.121214 0.926624 -0.253861
0.162507 1.00131 -0.523874
0.0876843 0.897108 -0.254599
0.110023 0.910811 -0.263892
0.156128 1.06545 -0.44314
0.141451 1.07816 -0.439728
0.0346088 1.03924 -0.406424
-0.211636 0.990127 -0.433883
-0.0827659 1.03985 -0.411114
0.0838221 0.845317 -0.318287
0.0425093 1.06225 -0.41081
0.191562 0.98283 -0.443758
0.137934 0.916163 -0.431094
-0.0463169 0.939448 -0.415308
0.000338284 0.879812 -0.26595
-0.144634 1.06224 -0.32536
-0.00304128 0.997387 -0.357609
-0.168792 1.00804 -0.514111
-0.0158879 0.897653 -0.349979
-0.169173 0.954774 -0.243114
0.00647961 0.963947 -0.369138
-0.0136631 0.90378 -0.35414
-0.149424 1.00949 -0.537719
-0.00463778 1.073 -0.465415
0.148882 1.07184 -0.44151
0.0959013 0.844185 -0.299733
-0.1393 1.06417 -0.329859
0.066362 0.862419 -0.336744
0.0720035 0.855205 -0.330669
-0.128519 1.04603 -0.428036
0.15229 1.06806 -0.442379
-0.042738 1.05695 -0.260464
-0.14815 0.957322 -0.230199
-0.0988304 0.957134 -0.204129
0.106253 1.01263 -0.572482
-0.00202077 1.08801 -0.508122
-0.000269029 1.08772 -0.520977
-0.0664859 0.946643 -0.206082
0.091885 1.09631 -0.42369
-0.187953 1.02174 -0.456526
0.0961198 1.09645 -0.425102
-0.215177 0.985994 -0.423269
0.0762612 1.09332 -0.420985
-0.200548 0.963197 -0.271565
-0.00377884 1.08513 -0.493593
0.18765 1.01197 -0.45699
-0.188269 0.958692 -0.25241
0.190066 0.984869 -0.449308
-0.146701 0.923706 -0.258014
-0.229839 0.963679 -0.336285
0.0906286 0.842226 -0.309028
0.00953921 0.906801 -0.331682
-0.0650655 1.01476 -0.586915
-0.159947 1.05468 -0.316463
0.139416 0.908979 -0.282852
-0.0923715 0.888033 -0.284529
-0.230215 0.972009 -0.372277
0.132567 0.905857 -0.27629
-0.180227 0.948088 -0.25043
-0.0203659 0.999428 -0.374574
-0.112291 0.95892 -0.208044
-0.054276 1.02553 -0.227743
-0.0387562 1.07256 -0.432096
-0.133613 1.06716 -0.3334
-0.00820833 0.906239 -0.221782
-0.0621503 1.01483 -0.587923
-0.0450835 1.05203 -0.254413
-0.0475165 1.02469 -0.400994
-0.160976 0.955885 -0.239458
0.0191251 0.915534 -0.218465
-0.112996 0.903528 -0.272355
-0.0562691 1.00933 -0.212846
-0.173208 1.00732 -0.507925
0.0507155 1.0169 -0.595166
-0.124135 0.958808 -0.214273
0.110338 0.911319 -0.258862
-0.154536 0.956982 -0.235001
-0.125711 0.913704 -0.266665
-0.0232513 1.00965 -0.383467
0.059924 0.930462 -0.411369
-0.192289 1.01632 -0.45881
-0.12328 1.04546 -0.426306
-0.201837 0.948981 -0.272299
0.19114 0.935054 -0.451271
-0.103066 1.0452 -0.418316
0.0555755 1.07933 -0.41402
0.123562 0.945235 -0.252234
-0.132702 0.916993 -0.263782
-0.0865128 0.927262 -0.5055
0.0639822 0.86747 -0.339638
-0.0893152 1.04215 -0.413193
0.00155145 0.88004 -0.271896
-0.020384 1.00275 -0.381642
-0.116129 1.04634 -0.423225
-0.228164 0.961708 -0.330331
0.0865622 0.84354 -0.315102
-0.173853 0.942785 -0.251159
-0.0175012 1.0014 -0.396325
-0.0234882 1.00693 -0.396685
-0.170144 1.03422 -0.446895
-0.154552 1.05711 -0.319622
-0.0440239 1.01487 -0.591932
-0.0371925 1.05852 -0.275617
-0.198428 0.965477 -0.273144
-0.0677905 1.03255 -0.406377
0.0136981 0.91769 -0.218556
0.172295 0.935452 -0.329345
-0.0918679 0.955694 -0.203516
0.174702 0.939918 -0.338983
0.171186 0.997534 -0.50662
-0.00495396 0.893767 -0.242741
0.0482783 0.904961 -0.230568
-0.16402 1.00909 -0.520682
-0.217564 0.98349 -0.416329
0.00793847 0.894831 -0.310851
-0.0609978 1.03015 -0.40454
0.0102567 0.91222 -0.339111
-0.139717 0.920406 -0.26084
0.0216559 0.989761 -0.420925
0.00757329 0.919462 -0.216751
0.0715353 1.09086 -0.419349
-0.0686195 1.08356 -0.456109
0.00709849 0.890392 -0.302861
-0.218481 0.952893 -0.306306
-0.00384098 1.00143 -0.354975
0.00502377 0.881803 -0.287304
0.0366293 1.04706 -0.407838
-0.00190246 1.0418 -0.436842
0.172939 0.99721 -0.501188
-0.08504 0.954792 -0.204209
-0.00980619 0.93078 -0.367374
-0.123205 0.931625 -0.531189
0.147054 0.914301 -0.29008
0.0237429 0.926145 -0.537684
-0.214028 0.949699 -0.294723
-0.159443 1.0091 -0.526491
-0.00749542 0.925269 -0.215393
-0.154779 1.00997 -0.532404
-0.0269599 1.00954 -0.397435
-0.185393 0.951703 -0.254003
0.0585041 1.08325 -0.414813
-0.0704166 0.878142 -0.300317
-0.0726785 1.01439 -0.584595
0.12131 0.975891 -0.258933
0.0992264 0.846622 -0.293271
-0.0777801 0.879062 -0.294972
0.0408018 1.01841 -0.597297
-0.192294 1.02151 -0.285052
0.184956 0.991148 -0.470863
-0.199746 0.954598 -0.268525
-0.203589 0.989227 -0.269819
-0.210696 0.991135 -0.437389
-0.146877 1.00926 -0.54015
0.160135 1.06308 -0.444045
0.115083 1.09235 -0.431144
-0.03278 0.883588 -0.332877
-0.175925 1.03169 -0.449912
0.0615934 0.872246 -0.34249
0.169961 0.919816 -0.442402
-0.18149 1.00488 -0.496575
-0.0420711 1.02137 -0.399987
0.0918219 1.01328 -0.580449
0.0417889 0.987649 -0.398155
-0.140333 1.01005 -0.546323
-0.0263269 0.887896 -0.339087
-0.110681 0.924935 -0.438595
0.057232 0.883496 -0.348829
0.121541 1.00996 -0.563467
-0.216177 0.984801 -0.419783
-0.0525313 0.938926 -0.208958
-0.0565083 1.00575 -0.208773
-0.0201245 0.999414 -0.378541
0.198543 0.964137 -0.45695
-0.136528 0.958359 -0.222411
-0.00637077 0.973084 -0.369603
-0.178409 1.04089 -0.29997
-0.151991 1.00977 -0.534952
-0.151355 0.983034 -0.549891
-0.230489 0.971115 -0.367803
-0.149695 1.04216 -0.437043
-0.176069 1.00727 -0.50454
0.137588 1.07991 -0.438793
-0.151051 0.990721 -0.548601
-0.0471323 0.878539 -0.319913
0.117958 1.01054 -0.565718
0.00110082 1.08619 -0.531701
0.162713 0.926739 -0.313491
-0.169463 1.04844 -0.307914
0.093615 0.84306 -0.303791
0.101403 1.03116 -0.27519
-0.0579703 0.99985 -0.202569
-0.00456083 1.07672 -0.474577
-0.0286198 0.930782 -0.213249
0.055469 0.889294 -0.352181
-0.00959493 0.973578 -0.369726
0.00276909 0.972939 -0.366228
-0.130294 0.958378 -0.218097
0.0255965 0.914343 -0.220186
0.00633423 0.972815 -0.366317
0.00322606 0.881032 -0.279311
-0.143958 1.04432 -0.435005
0.06933 1.01514 -0.590673
-0.11923 0.908811 -0.269327
0.149069 1.0048 -0.544695
-0.22745 0.977654 -0.392539
-0.00933836 0.994692 -0.404989
-0.00316013 0.973268 -0.369602
0.00334964 1.00553 -0.599066
-0.15703 0.928941 -0.256252
0.0257459 0.941818 -0.5886
-0.196651 1.01365 -0.280049
0.00832557 1.0051 -0.599686
0.183674 1.02075 -0.455938
-0.139056 1.0316 -0.5304
-0.157227 1.04067 -0.440655
-0.00974663 1.01951 -0.341145
0.168229 0.999914 -0.516074
0.0944493 0.915659 -0.418952
-0.0596086 0.942889 -0.208473
0.023786 0.925141 -0.529319
-0.0985681 1.01369 -0.574918
-0.0566341 1.08139 -0.446578
-0.204352 0.994857 -0.455693
-0.0855746 0.882077 -0.289696
0.165076 1.00104 -0.52039
-0.20615 0.993859 -0.450354
-0.000442585 0.973602 -0.367705
0.0844534 0.899784 -0.252263
0.121288 0.92872 -0.253863
-0.0203282 1.00499 -0.39629
