ply
format ascii 1.0
element vertex 1624
property float x
property float y
property float z
end_header
0.580105 0.82106 -0.0868972
0.557697 0.830118 -0.152487
0.510655 0.822581 -0.194912
0.571927 0.8276 -0.120328
0.570322 0.828838 -0.123311
0.573999 0.827316 -0.116077
0.538838 0.854008 -0.17283
0.522893 0.825273 -0.186801
0.524711 0.826354 -0.184984
0.515465 0.822856 -0.192294
0.517733 0.822911 -0.191531
0.421946 0.825469 -0.23631
0.452772 0.822103 -0.230644
0.433096 0.824452 -0.235613
0.47043 0.819479 -0.221521
0.485185 0.81942 -0.211408
0.501539 0.820634 -0.202267
0.558167 0.829935 -0.14989
0.509255 0.822428 -0.196538
0.405649 0.940179 -0.217264
0.524196 0.821522 -0.154892
0.474827 0.819319 -0.219263
0.477103 0.819151 -0.218072
0.479494 0.819384 -0.216446
0.293916 0.811651 -0.0740331
0.481299 0.819649 -0.214195
0.537164 0.842094 -0.168738
0.454228 0.87246 0.00870654
0.559125 0.809356 0.00487496
0.455774 0.890792 -0.0877348
0.45441 0.890936 -0.0870395
0.459634 0.885668 0.000173256
0.440171 0.976904 -0.187068
0.474388 0.911247 -0.0509076
0.367628 0.897676 -0.0570422
0.469169 0.902203 -0.0545967
0.454646 0.891247 -0.0887667
0.474347 0.890462 -0.0133124
0.557268 0.809432 0.00767028
0.531943 0.994957 0.0444419
0.491396 0.82731 -0.122031
0.547686 0.810546 0.0287206
0.317906 0.805391 0.0705384
0.543103 0.813614 0.0424896
0.544649 0.812209 0.0391126
0.325068 1.02167 0.0386776
0.480837 0.818947 0.0243881
0.516495 0.818173 -0.146039
0.495781 0.810839 0.0332803
0.46159 0.905525 -0.0734583
0.49717 0.810572 0.0347933
0.542463 0.814212 0.043429
0.468237 0.829277 0.0239467
0.251259 0.948622 -0.160679
0.522834 0.81663 0.0520318
0.523496 0.816968 0.0521184
0.523175 0.816881 0.0523417
0.513947 0.88391 0.115588
0.439355 0.805341 0.093407
0.526633 0.819174 0.0527834
0.514232 0.816639 0.0453144
0.527026 0.831131 0.0545181
0.518342 0.820125 0.0485882
0.53394 0.839226 0.058132
0.52935 0.833609 0.0563424
0.454484 0.890998 -0.090705
0.546688 0.884964 0.0919459
0.453653 0.8731 0.0126894
0.454228 0.883294 0.143111
0.4588 0.88488 0.000849336
0.474394 0.890035 -0.0142897
0.50841 0.941916 -0.178922
0.432324 0.805503 0.0950518
0.422373 0.875637 0.0299745
0.419385 0.875833 0.0296776
0.54468 0.811669 0.0375727
0.576185 0.89107 0.056697
0.559 0.929631 -0.146395
0.529792 0.884305 0.105496
0.256239 0.945037 -0.167953
0.532984 0.883573 0.103607
0.410078 0.866782 0.0315315
0.248335 0.824616 -0.000987507
0.569705 0.88928 0.0662007
0.554609 0.887802 0.0763528
0.529336 0.995732 0.0564525
0.577817 0.892073 0.0541036
0.596907 0.906748 -0.0526094
0.430346 0.824709 -0.235459
0.365081 0.892699 -0.0054516
0.368908 0.893802 -0.0093326
0.582036 0.817808 -0.0706393
0.530814 0.937922 -0.166941
0.595745 0.915531 -0.0854921
0.522308 0.974594 -0.0468799
0.564745 0.809472 -0.004829
0.507725 0.821965 -0.197821
0.583285 0.815014 -0.0567959
0.552814 0.810092 0.0169683
0.476129 0.882421 0.137067
0.579481 0.893096 0.0511705
0.41596 0.884438 0.152158
0.47102 0.894837 -0.0402469
0.452035 0.883928 0.143509
0.488784 0.94284 -0.19086
0.41799 0.876247 0.0288512
0.51187 0.815249 0.0435921
0.44983 0.884606 0.143899
0.547978 0.931878 -0.156797
0.596963 0.914334 -0.0247256
0.59825 0.913346 -0.0261444
0.471193 0.897191 -0.0431628
0.597367 0.913741 -0.0246671
0.596656 0.914751 -0.0240442
0.493928 0.944359 -0.18643
0.457371 0.97497 0.171542
0.286399 1.00587 -0.0805423
0.466287 0.987068 0.166741
0.480875 1.01025 0.125932
0.563651 0.889024 0.0742871
0.479079 1.01006 0.130158
0.483703 1.00966 0.124348
0.367896 0.898802 -0.00615376
0.471838 0.8874 -0.00566105
0.359471 0.869171 -0.0555471
0.371441 0.890381 0.148091
0.46795 1.00138 0.135494
0.550764 0.980908 -0.0343941
0.490099 1.00793 0.119972
0.459197 1.01279 0.148096
0.59853 0.907497 -0.0412349
0.36506 0.893375 -0.00591224
0.463311 1.01311 0.144928
0.469869 1.00217 0.148704
0.496889 0.883122 0.126643
0.422232 0.995754 0.109315
0.427524 0.995397 0.112929
0.246459 0.923365 0.0297277
0.469394 0.998032 0.156237
0.470224 1.0022 0.146387
0.27175 0.991556 -0.0365704
0.469722 1.00084 0.152723
0.438932 0.867784 0.0239034
0.471117 0.806231 0.0867297
0.499872 0.884547 0.124601
0.52699 0.88438 0.106844
0.525598 0.997327 0.0630452
0.540299 0.99343 0.022731
0.555776 0.809792 0.0102857
0.546756 0.99113 0.00231998
0.570635 0.96789 -0.0402286
0.2511 0.944931 -0.16136
0.591139 0.90003 0.0265398
0.313445 0.822591 0.0941981
0.507529 0.812899 0.0406235
0.594193 0.916215 -0.0213696
0.544631 0.976451 -0.0482478
0.544653 0.975876 -0.0530306
0.545795 0.976745 -0.0454924
0.538209 0.850972 -0.171831
0.595899 0.905371 -0.0565187
0.496987 0.824386 -0.124962
0.222339 0.945489 -0.105083
0.329275 1.00829 0.0397703
0.489455 0.828841 -0.120735
0.548245 0.977051 -0.0439587
0.525456 0.826887 -0.183422
0.596797 0.905934 -0.0544428
0.475035 0.944887 -0.197454
0.549643 0.989703 -0.0126403
0.575242 0.827047 -0.11134
0.545737 0.975532 -0.0588563
0.552387 0.984541 -0.0266509
0.563816 0.972642 -0.0410428
0.366151 0.836198 -0.169434
0.463884 0.983127 0.168683
0.56867 0.969557 -0.0408562
0.45939 0.905139 -0.0781433
0.540362 0.976352 -0.0781438
0.529389 0.977728 -0.102127
0.530251 0.977785 -0.098559
0.461385 0.981067 -0.152523
0.475575 0.979485 -0.147946
0.391398 0.890255 -0.0952623
0.513245 0.942481 -0.175672
0.553002 0.929696 -0.152912
0.586566 0.944913 -0.0362846
0.556829 0.930068 -0.148451
0.30569 0.813741 -0.0745968
0.491764 0.978286 -0.14043
0.482159 0.979011 -0.145238
0.485119 0.978758 -0.143538
0.413677 0.984524 -0.155918
0.53254 0.830645 -0.162957
0.524105 0.8841 0.108436
0.447884 0.951502 -0.204335
0.478789 1.00972 0.132082
0.534118 0.833233 -0.164401
0.470399 0.82706 0.0239813
0.450741 0.981072 -0.157257
0.590538 0.918308 -0.0953862
0.491237 0.943821 -0.188462
0.36383 0.800929 0.0945395
0.536436 0.935118 -0.164289
0.273467 0.975021 0.0374215
0.313551 0.99895 -0.0682912
0.537989 0.931306 -0.159514
0.554303 0.810055 0.0133453
0.520195 0.977428 -0.118135
0.367476 0.836184 -0.165325
0.512166 0.977907 -0.125629
0.337555 0.9518 -0.204932
0.562857 0.927896 -0.142951
0.462681 0.807156 0.0892728
0.543646 0.976123 -0.0732881
0.334597 1.01111 0.0403181
0.505337 0.941891 -0.181616
0.543373 0.934453 -0.158805
0.539157 0.931737 -0.156778
0.449986 0.950913 -0.203925
0.541059 0.935045 -0.160204
0.564675 0.927053 -0.141231
0.369269 0.890699 0.147049
0.56801 0.92735 -0.136521
0.558064 0.97512 -0.0409457
0.398634 0.906173 -0.0934554
0.602919 0.90655 -0.0258354
0.598392 0.913052 -0.025534
0.43703 0.983588 -0.176945
0.594815 0.915582 -0.0226189
0.530597 0.82845 -0.161539
0.59925 0.915513 -0.0773887
0.597032 0.902341 -0.0602438
0.472162 0.908196 -0.0481813
0.358703 0.802012 0.0937678
0.519517 0.999686 0.0710395
0.601248 0.913862 -0.0690259
0.600866 0.914062 -0.0740336
0.486486 0.942529 -0.192764
0.251429 0.948627 -0.162162
0.537952 0.845062 -0.169838
0.459792 0.906311 -0.0786669
0.459533 0.906999 -0.0792633
0.429843 0.981185 -0.158718
0.517602 0.971378 -0.048939
0.45533 0.891053 -0.0895588
0.459442 0.907705 -0.0796294
0.363169 0.901459 -0.0102907
0.418532 0.91124 -0.0955409
0.407543 0.908475 -0.0948167
0.449789 0.95109 -0.20337
0.444505 0.968623 -0.194858
0.604076 0.905924 -0.0203532
0.582664 0.922158 -0.111935
0.452576 0.806072 0.0898181
0.425365 0.862988 0.0323789
0.45239 0.945986 -0.205489
0.422972 0.981552 -0.156974
0.376146 0.800735 0.0973421
0.442504 0.911484 -0.0886621
0.297973 1.0054 -0.109083
0.326916 0.806966 0.0839175
0.26912 0.817708 0.0330784
0.452576 0.981101 -0.156405
0.544654 0.975779 -0.0547567
0.569131 0.927841 -0.134318
0.522506 0.977214 -0.115293
0.345219 0.951364 -0.207361
0.462274 0.887287 -0.00114173
0.471813 0.825533 0.0243308
0.416695 0.972639 -0.114551
0.316053 0.996639 -0.0668385
0.26576 0.992291 -0.0450696
0.494475 0.811242 0.0322079
0.282944 1.00573 -0.0819775
0.315109 1.00663 -0.117175
0.446597 0.911568 -0.0866597
0.311853 1.00637 -0.116181
0.528092 0.976924 -0.0442635
0.506337 0.821626 -0.198766
0.444938 0.964653 -0.198051
0.586045 0.919103 -0.104954
0.425076 0.99562 0.111092
0.388021 0.992065 -0.148844
0.408905 0.93983 -0.216682
0.363099 0.949418 -0.210033
0.566541 0.926828 -0.139011
0.357795 0.999693 -0.139407
0.25128 0.948818 -0.161215
0.312779 0.9522 -0.19779
0.366554 0.89191 -0.00323191
0.267576 0.997331 -0.0763891
0.382031 0.843034 -0.138865
0.283592 0.985121 0.0405646
0.38408 0.993 -0.147414
0.313634 0.950686 -0.195456
0.355113 0.836839 -0.234258
0.404857 0.987542 -0.154571
0.501368 0.810548 0.0379993
0.3233 0.955181 -0.201053
0.362479 0.834417 -0.233706
0.310525 0.951976 -0.197184
0.418514 0.826045 -0.236838
0.561108 0.928947 -0.144504
0.326542 0.95564 -0.202292
0.441105 0.885649 0.144808
0.305347 0.951271 -0.195113
0.370866 0.997217 -0.144341
0.37565 0.900953 -0.0738058
0.458101 0.884139 0.00138229
0.378618 0.901412 -0.0780421
0.45671 0.882736 0.00284241
0.383969 0.902575 -0.0850597
0.509242 0.97813 -0.127853
0.383111 0.901961 -0.0837865
0.448468 0.911082 -0.0859081
0.302806 0.950978 -0.193896
0.377445 0.901751 -0.0767583
0.369236 0.89943 -0.0638776
0.366491 0.915171 -0.062727
0.367415 0.901581 -0.0612899
0.232776 0.946962 -0.138538
0.485191 0.834405 -0.11546
0.231993 0.946454 -0.135583
0.387513 0.902371 -0.0877028
0.235602 0.974044 -0.118573
0.219772 0.943383 -0.0705788
0.544223 0.813083 0.0409991
0.219737 0.931078 -0.049809
0.598276 0.906943 -0.0437198
0.546502 0.810561 0.0310538
0.495697 0.978062 -0.138756
0.520249 0.822332 0.0505223
0.2515 0.944043 -0.162264
0.368184 0.898512 -0.0591674
0.472441 0.888183 -0.00684331
0.527817 0.9769 -0.109433
0.506737 0.978247 -0.129994
0.257806 0.945016 -0.16926
0.252486 0.944365 -0.162464
0.576436 0.825319 -0.10254
0.568783 0.829482 -0.126486
0.522203 0.99876 0.0667434
0.251922 0.94414 -0.162274
0.237032 0.947004 -0.146629
0.278767 0.898948 0.0917467
0.241366 0.947481 -0.151927
0.254608 0.944842 -0.166543
0.456174 0.821266 -0.229457
0.21939 0.944035 -0.0666906
0.218991 0.943937 -0.062568
0.262947 0.993527 -0.057308
0.236968 0.976198 -0.117051
0.547763 0.977556 -0.0407327
0.236126 0.831734 -0.10534
0.45213 0.90882 -0.0837295
0.338764 0.889369 0.132988
0.326474 1.00548 -0.123418
0.459322 0.989405 0.131004
0.293887 0.951417 -0.188512
0.306639 0.843148 -0.204964
0.598913 0.91585 -0.0786466
0.589946 0.89974 0.0292039
0.545789 0.978617 -0.0416494
0.262222 1.00103 -0.0953176
0.544896 0.855202 0.0682398
0.28984 1.0061 -0.0789869
0.474496 0.889823 -0.015176
0.271074 1.00423 -0.0893152
0.555449 0.888013 0.0769663
0.272194 1.00193 -0.0821874
0.451671 0.909505 -0.0840044
0.488368 0.830558 -0.118875
0.268538 0.998578 -0.0774768
0.310267 1.00127 -0.0697693
0.273731 1.00256 -0.0843578
0.262616 0.994661 -0.0622971
0.470509 0.900624 -0.0478297
0.262743 0.99391 -0.0599965
0.256244 0.996602 -0.101083
0.320631 0.991389 -0.0641613
0.263237 0.993328 -0.0547197
0.583822 0.921451 -0.10988
0.249114 0.830874 -0.0745425
0.263788 0.993238 -0.0521804
0.264388 0.992929 -0.0499153
0.322993 1.00477 0.0318724
0.220403 0.94116 -0.0479015
0.235909 0.946947 -0.14486
0.53496 0.836273 -0.16599
0.300642 0.841067 -0.199983
0.346445 1.0022 -0.134076
0.443331 0.991309 0.123425
0.26515 0.992554 -0.0476342
0.221417 0.940829 -0.0431611
0.456358 0.890718 -0.0873627
0.293757 0.993053 0.000811718
0.433758 0.885289 0.146529
0.559044 0.829689 -0.147357
0.547968 0.991029 -0.00160418
0.41225 0.985067 -0.155653
0.427166 0.862809 0.0319072
0.547878 0.978082 -0.0393858
0.325546 1.0051 0.0331212
0.296049 0.993672 0.00296367
0.57437 0.890091 0.0593908
0.347167 1.01907 0.0551406
0.546759 0.857127 0.0706912
0.544212 0.97666 -0.0463915
0.435947 0.805361 0.0944712
0.376438 0.901752 -0.075437
0.530959 0.977907 -0.0438158
0.449505 0.823012 -0.231432
0.388618 1.0052 0.086037
0.379436 1.0084 0.0797508
0.252063 0.942266 -0.163645
0.382232 1.00733 0.0819909
0.368393 1.01313 0.069569
0.373067 1.01145 0.0730601
0.583971 0.894389 0.0425709
0.362153 0.998929 -0.141283
0.330773 0.950912 -0.203165
0.545025 0.975601 -0.0633129
0.410358 0.985597 -0.155509
0.354994 1.01703 0.0592892
0.350329 1.01845 0.0562914
0.461789 0.8872 -0.000879615
0.469802 0.881873 0.139106
0.352984 1.01784 0.057625
0.290057 0.836252 -0.192342
0.219539 0.941872 -0.0529165
0.21759 0.930677 -0.0542643
0.218966 0.929736 -0.0543138
0.220991 0.930565 -0.0507136
0.470144 0.943604 -0.199825
0.2626 0.96199 0.0353311
0.318866 0.953675 -0.19948
0.31718 0.808771 0.0772473
0.55472 0.887626 0.0756878
0.327793 1.0211 0.0415977
0.323281 1.02167 0.0377699
0.383663 0.844603 -0.135971
0.451839 0.909426 -0.0839395
0.550862 0.987275 -0.0183223
0.234647 0.932771 0.00290152
0.283558 0.990671 -0.0169075
0.432725 0.940646 -0.21279
0.259597 0.945071 -0.170738
0.221466 0.946834 -0.101915
0.262406 0.819669 0.0212727
0.259713 0.912172 0.0570875
0.251228 0.944187 -0.162086
0.276771 0.81567 0.0430974
0.264828 0.909163 0.065136
0.265653 0.81904 0.0264641
0.236797 0.844796 -0.0709713
0.365218 1.01385 0.0679876
0.475069 0.908915 -0.0488417
0.409797 0.885636 0.153659
0.313819 0.895621 0.123074
0.377036 1.00935 0.0774135
0.473231 0.890526 -0.0228004
0.582708 0.894071 0.0451277
0.503105 0.885391 0.122495
0.538763 0.977133 -0.0866194
0.472982 0.888942 -0.00794695
0.582305 0.813877 -0.052838
0.469579 0.901929 -0.0529396
0.475242 0.909573 -0.0494556
0.369371 0.893829 -0.00983566
0.537547 0.818979 0.0522169
0.368363 0.896426 -0.00507605
0.495413 0.820272 -0.206241
0.602176 0.906128 -0.0288583
0.469869 0.999526 0.155097
0.363977 0.879546 -0.0457932
0.399414 0.877553 0.0232213
0.364238 0.879795 -0.0457946
0.273567 0.991289 -0.0342301
0.523949 0.817235 0.0516825
0.435498 0.911615 -0.0911795
0.5819 0.813353 -0.0485348
0.42888 0.863311 0.031104
0.224616 0.93921 -0.0256355
0.36782 0.897198 -0.00442511
0.330392 0.858855 -0.220526
0.367116 0.897783 -0.00423351
0.504499 0.978284 -0.132139
0.228703 0.936741 -0.0126233
0.580732 0.812636 -0.0401945
0.239304 0.936236 0.0221246
0.46521 0.980639 -0.151432
0.50684 0.885329 0.120028
0.329725 1.00917 0.0405495
0.473772 0.890011 -0.00980857
0.356405 1.0161 0.0614197
0.281896 0.895725 0.0987442
0.283083 0.894377 0.101871
0.285306 0.891933 0.107078
0.297293 0.887478 0.121346
0.461716 1.01348 0.146508
0.600865 0.902958 0.000130787
0.374624 0.887006 0.00187273
0.450871 0.876511 0.0105401
0.363164 0.897946 -0.0318733
0.370669 1.01242 0.0715402
0.371995 0.888128 0.000504866
0.436744 0.940575 -0.211445
0.375174 0.885922 0.00306696
0.372857 0.88816 0.000831649
0.236607 0.832092 -0.0731199
0.47554 0.805193 0.0845949
0.367114 0.891429 -0.00279777
0.369597 0.891417 -0.000902429
0.598102 0.913817 -0.0266294
0.366337 0.906924 -0.00562265
0.369064 0.891566 -0.00132844
0.425958 0.8048 0.0952695
0.464783 1.0124 0.144164
0.368268 0.89141 -0.00201414
0.418151 0.975811 -0.118608
0.293277 0.887227 0.11793
0.539971 0.883974 0.0982416
0.398754 0.878411 0.0228131
0.273575 0.903979 0.0805514
0.367177 0.897668 -0.0554147
0.452231 0.877962 0.00898157
0.455677 0.874134 0.012551
0.600233 0.911265 -0.0666744
0.454122 0.872898 0.0103714
0.393786 0.880536 0.0215061
0.351077 0.949286 -0.209342
0.374038 0.898225 -0.0699545
0.39338 0.88206 0.0212721
0.405106 0.869274 0.0283723
0.438718 0.981124 -0.182023
0.455025 0.874224 0.0127967
0.236187 0.931184 0.006937
0.471179 0.896426 -0.0421857
0.354901 0.892409 0.141037
0.385206 1.00632 0.0840017
0.29016 0.887924 0.114609
0.382293 0.889474 0.153855
0.384796 0.883882 0.02091
0.445072 0.911529 -0.0872337
0.34593 0.892835 0.139422
0.584769 0.920588 -0.108019
0.384306 0.888684 0.154029
0.348894 0.892248 0.139893
0.269827 0.991782 -0.0384248
0.22309 0.940697 -0.0342817
0.259144 0.820765 0.0159986
0.222404 0.940627 -0.0384721
0.460446 1.01323 0.147455
0.472805 0.890043 -0.0241369
0.509139 0.818413 -0.136249
0.332245 0.894993 0.132769
0.544974 0.810922 0.0353375
0.333148 0.894499 0.136982
0.286563 0.990757 0.0393792
0.267908 1.00327 -0.0914358
0.2649 1.00234 -0.0934591
0.332707 1.01056 0.0404204
0.419646 0.864534 0.0332544
0.333873 0.894671 0.132294
0.385824 0.883421 0.0212285
0.288507 0.888807 0.112482
0.29467 0.887074 0.119331
0.244541 0.826713 -0.00971947
0.300397 0.887302 0.123108
0.318246 0.808605 0.0767671
0.31791 0.808691 0.079847
0.582431 0.817213 -0.0668089
0.340615 0.839853 -0.229037
0.509058 0.806996 0.0737488
0.502143 0.80489 0.0759339
0.240769 0.927257 0.0183585
0.29327 0.807743 0.0663056
0.524617 0.81779 0.051769
0.318657 0.808655 0.0804975
0.534279 0.97858 -0.0436573
0.317245 0.808894 0.079277
0.495072 0.805399 0.0785921
0.301776 0.804265 0.0751347
0.381911 0.800313 0.0970827
0.468767 0.980234 -0.15036
0.456325 0.890771 -0.0879154
0.318742 1.00636 -0.119349
0.334938 0.807215 0.0880871
0.448189 0.945651 -0.206552
0.302565 0.804058 0.0788167
0.51733 0.88379 0.113176
0.516189 0.818224 0.046592
0.303409 0.803722 0.08046
0.315448 0.896762 0.124668
0.26762 0.992021 -0.0403308
0.368671 0.800636 0.0954775
0.429085 0.80528 0.0951663
0.343272 0.813767 0.0268597
0.446085 0.885023 0.144311
0.287289 0.835796 -0.190542
0.397683 0.878906 0.0225718
0.374337 0.996222 -0.145137
0.393899 0.881322 0.021282
0.466993 0.806948 0.0881857
0.370688 0.888236 -0.00033085
0.371176 0.888367 0.00010781
0.48756 0.814172 0.0268267
0.4907 0.812399 0.0300059
0.57812 0.822456 -0.0952705
0.458573 0.806851 0.0897595
0.329242 1.00733 0.038394
0.358567 1.01534 0.0636874
0.339878 0.810235 0.0308716
0.484803 0.816191 0.0251423
0.328318 0.806971 0.0854595
0.366484 0.800591 0.094853
0.332617 0.800141 0.0452729
0.373595 0.947791 -0.212195
0.302089 0.804324 0.0758457
0.422789 0.804419 0.0958395
0.487062 1.00897 0.122547
0.330728 0.799712 0.0480104
0.38825 0.88251 0.0214971
0.545448 0.975916 -0.0511756
0.314484 0.811913 0.0814064
0.257509 0.821296 0.0134708
0.596594 0.914652 -0.024377
0.368245 0.899834 -0.0607521
0.252077 0.918632 0.041386
0.318869 0.808646 0.0766437
0.408873 0.826904 -0.237006
0.538895 0.931898 -0.157088
0.497098 0.820198 -0.20499
0.550108 0.988489 -0.0155585
0.335439 1.01187 0.0410641
0.505108 0.821441 -0.199843
0.499297 0.820364 -0.203677
0.454846 0.890753 -0.086875
0.226436 0.946126 -0.122315
0.270969 0.816705 -0.0739802
0.563051 0.809471 -0.00110985
0.279545 0.833758 -0.183379
0.303591 0.803346 0.0792743
0.278541 0.815227 0.0462155
0.275817 0.991018 -0.0278797
0.399211 1.0005 0.0951641
0.422564 0.863 0.0324859
0.227157 0.937415 -0.0168786
0.225762 0.938046 -0.0211905
0.275046 0.991056 -0.0310826
0.275041 1.00314 -0.0866402
0.303514 0.803689 0.0796633
0.236306 0.831962 -0.0722352
0.474265 0.890177 -0.0187293
0.231359 0.833906 -0.0711512
0.223181 0.954617 -0.129427
0.223311 0.954524 -0.129778
0.366255 0.895271 -0.00602341
0.222453 0.954428 -0.129201
0.279132 0.98052 0.0384732
0.363997 0.899453 -0.0359389
0.23828 0.842086 -0.0710931
0.232153 0.96516 -0.126141
0.545884 0.976017 -0.0498798
0.227996 0.94671 -0.125031
0.470782 0.899711 -0.0463688
0.23344 0.833468 -0.0744164
0.263933 0.996027 -0.0677184
0.403622 0.804153 0.0971571
0.23386 0.833522 -0.0746788
0.491071 0.881962 0.129978
0.235066 0.847556 -0.0712196
0.262122 0.91066 0.0610695
0.28191 0.9479 -0.183882
0.23784 0.831633 -0.109467
0.490405 0.819698 -0.209047
0.257723 0.913602 0.0532832
0.370978 0.898359 -0.0656483
0.267421 0.818361 0.0298163
0.47151 0.892028 -0.0350414
0.243422 0.936742 0.0251222
0.243035 0.937279 0.0238922
0.597908 0.906921 -0.0463721
0.276451 0.977887 0.0374847
0.39893 0.827341 -0.236087
0.378935 0.840237 -0.145463
0.252979 0.942464 -0.166338
0.367557 0.89691 -0.00594687
0.348799 0.838159 -0.232914
0.254723 0.822108 0.00820953
0.57791 0.923828 -0.122496
0.425985 0.862625 0.0323249
0.449848 0.875865 0.0120438
0.442719 0.806044 0.0929094
0.443112 0.885487 0.144479
0.332389 0.855304 -0.222646
0.272884 0.816439 0.0383221
0.371286 0.83683 -0.158311
0.462967 0.9812 0.169767
0.256047 0.821773 0.0108892
0.29533 0.838459 -0.195794
0.561223 0.809462 0.00205617
0.363111 0.901078 -0.0119683
0.465124 0.984971 0.16758
0.260828 0.820257 0.0185091
0.543571 0.884165 0.094876
0.420376 0.981191 -0.128096
0.593678 0.900533 0.0185502
0.531727 0.836339 0.0574015
0.600257 0.912106 -0.0676551
0.461662 0.979142 0.170455
0.581185 0.893719 0.0479708
0.412703 0.910376 -0.0956065
0.538232 0.931708 -0.158685
0.392687 0.827765 -0.235627
0.35013 1.0013 -0.135772
0.298001 0.839616 -0.197579
0.39712 0.888122 0.156069
0.301913 1.00532 -0.111685
0.308573 0.814806 -0.0738755
0.603525 0.905832 -0.0160603
0.537777 0.934729 -0.163212
0.53329 0.936954 -0.165841
0.231258 0.946433 -0.132664
0.532488 0.81896 0.0523027
0.356296 0.836175 -0.189722
0.241402 0.936394 0.0241603
0.325852 0.807189 0.0832732
0.548239 0.976719 -0.0451499
0.57218 0.927349 -0.130267
0.577089 0.924405 -0.124168
0.585348 0.894685 0.0394634
0.416034 0.911154 -0.095772
0.541635 0.930964 -0.156465
0.241599 0.828509 -0.0160017
0.493056 0.819852 -0.207527
0.594554 0.90153 0.0164096
0.373656 0.830055 -0.234521
0.336843 0.840998 -0.2281
0.220523 0.947011 -0.0983174
0.302027 0.80459 0.0768825
0.251231 0.947842 -0.160207
0.358057 0.867501 -0.0573984
0.361927 0.83523 -0.179502
0.339638 0.840932 -0.231916
0.570332 0.9278 -0.132404
0.310889 0.902663 0.11944
0.340369 0.840691 -0.231325
0.257925 0.998224 -0.0992401
0.431852 0.885112 0.147148
0.374949 0.899365 -0.0719381
0.523341 0.82691 0.0518161
0.455546 0.903551 -0.0806802
0.338886 0.84031 -0.228152
0.346127 0.838455 -0.231955
0.41125 0.826905 -0.237109
0.368606 0.89418 -0.00898352
0.289112 0.809443 0.0619413
0.246847 0.941698 0.0270912
0.368426 0.894376 -0.00920075
0.368575 0.894106 -0.00890517
0.459855 0.906049 -0.0785025
0.329585 0.856844 -0.218392
0.456175 0.874164 0.0129937
0.255061 0.830364 -0.14736
0.320559 0.802964 0.0658264
0.391471 0.88974 -0.0989071
0.548075 0.977271 -0.0424071
0.339629 0.84702 -0.212495
0.325686 0.866395 -0.223401
0.598086 0.913163 -0.0250636
0.274689 0.816122 0.0405097
0.491853 0.805871 0.0803839
0.363878 0.900496 -0.0381475
0.348442 0.839199 -0.200508
0.422227 0.941601 -0.213991
0.30584 0.996782 0.0141088
0.541346 0.850556 0.0654646
0.455776 0.881873 0.00417209
0.589479 0.918676 -0.0975344
0.314633 0.950373 -0.196858
0.36071 0.835197 -0.233549
0.341215 0.840283 -0.230589
0.596543 0.902973 -0.0582968
0.346839 0.840467 -0.203146
0.349162 0.838811 -0.233215
0.343893 0.83905 -0.231624
0.341803 0.839946 -0.231777
0.307943 0.997748 0.0157302
0.327218 0.863766 -0.222173
0.581077 0.81953 -0.0784164
0.337875 0.848774 -0.214204
0.603706 0.90632 -0.023063
0.302798 0.813003 -0.0746684
0.459596 0.977015 0.170976
0.315062 0.810028 0.0783594
0.369183 0.836322 -0.161436
0.417108 0.940712 -0.214884
0.332411 0.829664 -0.0704451
0.407821 0.986372 -0.155334
0.245885 0.831818 -0.129715
0.459736 0.905751 -0.0784864
0.460542 0.882628 0.142532
0.54921 0.990557 -0.00906798
0.469949 0.901749 -0.0505853
0.252661 0.942878 -0.164127
0.253131 0.943285 -0.164327
0.597477 0.907374 -0.0482851
0.278942 0.991013 -0.0221005
0.257395 0.830592 -0.151819
0.308475 0.947102 -0.193352
0.283483 0.812367 0.0558722
0.377516 0.944467 -0.21384
0.252712 0.944262 -0.162518
0.326349 0.805797 0.0788838
0.488179 0.978561 -0.142052
0.409751 0.909342 -0.0951638
0.471067 0.894296 -0.0393855
0.351454 0.82353 0.0205589
0.248567 0.921684 0.033864
0.525639 0.938653 -0.169717
0.234821 0.833179 -0.0750691
0.385597 0.943993 -0.215379
0.370686 0.831231 -0.234829
0.331947 0.856714 -0.219742
0.250426 0.831175 -0.138965
0.252821 0.830551 -0.143128
0.485464 0.805909 0.0821042
0.283785 1.00419 -0.0968148
0.230451 0.946873 -0.129985
0.37975 0.891083 0.152911
0.311245 0.896602 0.120829
0.541852 0.976111 -0.0756199
0.311159 0.898558 0.120316
0.266492 0.945264 -0.175645
0.299907 0.812298 -0.0743981
0.270521 0.831399 -0.171902
0.499105 0.810376 0.0363899
0.349067 0.838895 -0.233804
0.243379 0.936546 0.0252314
0.272162 0.831306 -0.173406
0.369875 0.890687 -0.00072433
0.396938 1.00163 0.0929589
0.441038 0.824094 -0.233671
0.255809 0.914962 0.0493946
0.3182 0.994168 -0.0653867
0.467649 0.819691 -0.223059
0.454361 0.873799 0.0126173
0.472492 0.889161 -0.0248317
0.41331 0.826954 -0.237239
0.593577 0.916578 -0.0208956
0.473906 0.908624 -0.0483985
0.547222 0.97665 -0.0455615
0.472637 0.908379 -0.0482603
0.239427 0.830043 -0.0226089
0.415899 0.864553 0.0337075
0.328167 0.856173 -0.217311
0.343542 0.843369 -0.20815
0.301242 0.995626 0.0103735
0.602469 0.903853 -0.00548448
0.321399 0.808006 0.0765308
0.415205 0.983835 -0.156247
0.409992 0.920397 -0.0969691
0.599116 0.902564 0.00639159
0.392036 0.881992 0.0213669
0.518066 0.818666 -0.148159
0.459597 0.905476 -0.0784566
0.560917 0.973935 -0.040524
0.361826 1.01458 0.0659833
0.501945 0.821762 -0.128951
0.499964 0.82304 -0.126908
0.56524 0.830647 -0.136274
0.344573 0.81568 0.0251963
0.334043 0.801019 0.0429516
0.368078 0.906573 -0.00521162
0.242412 0.926103 0.0219751
0.320012 0.808526 0.0811942
0.603198 0.90503 -0.0100259
0.532448 0.977546 -0.0953307
0.444151 0.911053 -0.0875434
0.363432 0.900014 -0.00922623
0.23946 0.831654 -0.11413
0.223735 0.940471 -0.0300696
0.313352 1.00061 0.0214128
0.363127 0.899885 -0.0165724
0.525587 0.823055 -0.156927
0.515478 0.977639 -0.123384
0.522266 0.820265 -0.152568
0.566668 0.809501 -0.00831811
0.492773 0.811746 0.0312059
0.526883 0.824699 -0.15863
0.39195 0.802621 0.0982882
0.538018 0.818741 0.0517251
0.302592 1.00561 0.0380749
0.482478 0.884363 0.133768
0.420278 0.911291 -0.095138
0.409996 0.920775 -0.0972899
0.248143 0.831701 -0.134546
0.538772 0.931866 -0.157806
0.527238 0.81931 0.0530509
0.498572 0.804943 0.0770698
0.539147 0.934764 -0.161853
0.464346 0.90529 -0.0682525
0.459435 0.905238 -0.0784561
0.528813 0.819693 0.0519352
0.580663 0.820381 -0.0826599
0.521984 0.824552 -0.187992
0.53809 0.848024 -0.170866
0.272493 0.946098 -0.179153
0.456455 0.882744 0.143109
0.438608 0.981271 -0.158373
0.464434 0.882756 0.141139
0.421094 0.981931 -0.156779
0.288597 0.993145 0.0387806
0.384544 0.800833 0.0975717
0.556524 0.887097 0.074728
0.429652 0.884885 0.147858
0.59873 0.908616 -0.0372497
0.396294 0.879185 0.0223639
0.333964 0.95135 -0.203901
0.543162 0.853223 0.0662352
0.536457 0.883626 0.101106
0.400622 0.874385 0.0249818
0.252286 0.943345 -0.162616
0.600716 0.907076 -0.032681
0.592511 0.899972 0.0222544
0.435141 0.940385 -0.212091
0.324665 0.800859 0.0574738
0.243656 0.83182 -0.124634
0.309685 0.948292 -0.194015
0.418251 0.884371 0.151468
0.40623 0.805159 0.097962
0.468712 0.99313 0.161649
0.280842 1.00422 -0.0941258
0.386819 0.801712 0.0981674
0.460633 0.904609 -0.0753296
0.585159 0.947323 -0.0365637
0.468388 0.991196 0.16386
0.323635 0.98844 -0.0630035
0.311513 0.815881 -0.0729237
0.523491 0.939482 -0.171348
0.372652 0.897895 -0.0677424
0.467672 0.988981 0.165729
0.253452 0.944656 -0.165496
0.250852 0.991599 -0.106291
0.350198 0.838269 -0.197803
0.32163 0.802178 0.0628606
0.411958 0.866241 0.0323954
0.284442 0.948612 -0.18475
0.473564 0.881479 0.13813
0.512691 0.8226 -0.193401
0.487796 0.819559 -0.210145
0.484109 0.942681 -0.194318
0.268361 0.945709 -0.176517
0.471054 0.89596 -0.0416408
0.524984 0.975795 -0.0455774
0.31677 1.00204 0.0256051
0.424661 0.863258 0.0324381
0.402399 0.940987 -0.217299
0.418754 0.804611 0.0968594
0.328969 0.856349 -0.217462
0.251715 0.82851 -0.0745325
0.459575 0.908279 -0.0795664
0.452025 0.90921 -0.0839245
0.469747 0.90194 -0.0517727
0.545867 0.9332 -0.157803
0.47909 0.979203 -0.146593
0.58285 0.816712 -0.0633915
0.549587 0.979101 -0.0373483
0.494046 0.825869 -0.123184
0.328873 0.799707 0.0504539
0.23552 0.832553 -0.0746583
0.574327 0.81059 -0.021618
0.539571 0.857062 -0.173897
0.286619 1.00425 -0.0996148
0.423811 0.863299 0.0323577
0.474251 0.890499 -0.0115188
0.416774 0.983189 -0.156476
0.309828 0.998856 0.0173445
0.281703 0.982951 0.0397378
0.540127 0.979218 -0.0425984
0.376211 0.891079 0.149975
0.566552 0.971255 -0.0416708
0.342754 0.893287 0.138896
0.526332 0.819072 0.0524151
0.525554 0.818503 0.0520208
0.267613 0.907863 0.0691524
0.481501 0.943458 -0.195393
0.579189 0.92378 -0.118434
0.513329 0.817804 -0.141248
0.588065 0.942534 -0.0363125
0.315255 1.00129 0.0235878
0.304052 0.802982 0.0811505
0.3903 0.881751 0.0214778
0.52029 0.819421 -0.150401
0.401817 0.887163 0.155292
0.579141 0.821618 -0.0912559
0.286914 0.812241 -0.0745935
0.38463 0.828816 -0.235058
0.253077 0.942803 -0.165431
0.603704 0.906038 -0.0181464
0.292011 1.00483 -0.104453
0.44259 0.991632 0.122556
0.538594 0.994045 0.0310033
0.444434 0.990877 0.123564
0.413123 0.866282 0.0327614
0.275276 0.902466 0.0843531
0.435879 0.984415 -0.173881
0.28543 0.811265 0.0579715
0.373888 0.890608 0.149072
0.233381 0.933648 -0.000483423
0.367784 0.89154 0.145963
0.471974 0.891368 -0.0324593
0.599943 0.914281 -0.0756563
0.317473 0.818476 -0.0720694
0.259979 0.999745 -0.0972157
0.552277 0.976831 -0.0409591
0.468531 0.902868 -0.0565655
0.531814 0.819018 0.05213
0.522244 0.940239 -0.172097
0.43555 0.824382 -0.235458
0.514885 0.968936 -0.0487348
0.572627 0.966164 -0.0398948
0.363038 0.900997 -0.00963321
0.287126 0.889738 0.110449
0.315176 0.847683 -0.209294
0.415151 0.86498 0.0335075
0.365485 0.89742 -0.0443281
0.518205 0.977463 -0.120897
0.341559 0.845136 -0.210487
0.554775 0.929926 -0.150723
0.424805 0.912052 -0.0942145
0.51956 0.941145 -0.173184
0.394875 0.990719 -0.151123
0.412584 0.939971 -0.215859
0.398971 0.942448 -0.216765
0.39498 0.943693 -0.216137
0.305464 0.801745 0.0810094
0.448965 0.951051 -0.20382
0.358917 0.948672 -0.209625
0.516451 0.942076 -0.174328
0.434868 0.985309 -0.170498
0.596999 0.907704 -0.0505751
0.459322 0.989153 0.13065
0.524232 0.938956 -0.17068
0.291527 0.992509 -0.00133117
0.391704 0.890123 -0.0958909
0.375038 1.01032 0.0749787
0.280369 0.813554 -0.0744888
0.579919 0.812616 -0.0358384
0.59316 0.916205 -0.0902724
0.591386 0.91765 -0.0936723
0.365646 0.899406 -0.0440876
0.53884 0.976983 -0.0838235
0.544984 0.976003 -0.0685188
0.597511 0.915555 -0.0281038
0.528016 0.996367 0.0597344
0.319257 0.80413 0.0683312
0.461011 0.905275 -0.0745654
0.472216 0.889787 -0.0284584
0.27205 0.905202 0.0769297
0.582214 0.955055 -0.0391742
0.472143 0.891006 -0.0312133
0.333688 0.894204 0.132695
0.33858 1.00383 -0.130312
0.366855 0.896789 -0.00625144
0.353071 0.802602 0.0910764
0.533987 0.994741 0.0400407
0.573675 0.964284 -0.0392676
0.478788 0.820634 0.0240393
0.336338 0.803203 0.038803
0.575449 0.962234 -0.0389456
0.45319 0.872548 0.0134187
0.261773 0.945404 -0.172477
0.223353 0.944347 -0.112424
0.373731 0.887487 0.00127543
0.575889 0.925356 -0.125964
0.545509 0.975479 -0.0609566
0.505255 0.805475 0.0751187
0.418908 0.977209 -0.120416
0.307802 0.951505 -0.196282
0.384987 0.846234 -0.132913
0.358367 0.8356 -0.186477
0.503463 0.811051 0.0390552
0.530126 0.995369 0.052591
0.551554 0.986309 -0.0214805
0.313569 0.816149 0.0864098
0.31304 0.950593 -0.194955
0.459838 0.905915 -0.0784834
0.462472 0.905423 -0.0718802
0.299583 0.995111 0.00802109
0.602842 0.90467 -0.00739971
0.478561 0.944543 -0.196162
0.429573 0.994968 0.114357
0.455494 0.904172 -0.0810131
0.460212 0.904293 -0.0761976
0.253301 0.943257 -0.164715
0.405932 0.886101 0.154531
0.494085 0.882084 0.128365
0.471166 0.886765 -0.00462613
0.360118 0.835282 -0.183134
0.551458 0.98091 -0.0337675
0.527475 0.819323 0.0522738
0.527015 0.819204 0.0529001
0.399893 0.876569 0.0237608
0.292782 0.997713 0.0384094
0.459979 0.909105 -0.0788585
0.578532 0.923836 -0.120471
0.317082 0.848842 -0.210572
0.45581 0.9445 -0.205559
0.43009 0.940994 -0.213254
0.30369 0.842152 -0.202581
0.448273 0.980958 -0.157594
0.330222 1.00503 -0.125709
0.36419 0.897928 -0.0327703
0.426871 0.884815 0.148754
0.364221 0.898469 -0.0341155
0.430371 0.912717 -0.0932034
0.368091 0.896162 -0.0531915
0.283464 0.812848 -0.074708
0.334295 1.00445 -0.127971
0.225063 0.945631 -0.11948
0.364603 0.899944 -0.0428721
0.333283 0.895009 0.13224
0.295202 0.999911 0.0380068
0.292665 0.837434 -0.194093
0.323252 0.807392 0.0773194
0.545426 0.975685 -0.0568845
0.307045 1.00322 -0.0714227
0.459636 0.904703 -0.0773997
0.243713 0.98452 -0.110678
0.506916 0.941585 -0.180405
0.500055 0.943214 -0.183903
0.581556 0.818637 -0.0743692
0.548778 0.990926 -0.00553825
0.453882 0.891921 -0.0898201
0.364918 0.835995 -0.173122
0.232461 0.833462 -0.074045
0.399721 0.887961 0.155675
0.597678 0.912643 -0.0633954
0.28595 0.891019 0.108304
0.521006 0.823923 -0.189291
0.371664 0.949743 -0.211308
0.5788 0.811999 -0.0323178
0.354153 0.836864 -0.192591
0.453062 0.891629 -0.0881033
0.315831 0.80849 0.0754362
0.373521 0.837706 -0.155666
0.39151 0.890413 -0.0950128
0.241367 0.83168 -0.119089
0.346127 0.817731 0.0239323
0.234809 0.947287 -0.143027
0.503039 0.942452 -0.182769
0.389255 0.881949 0.0215168
0.222572 0.95446 -0.128975
0.355634 0.948386 -0.209518
0.23949 0.947399 -0.14939
0.230479 0.963265 -0.127134
0.486866 0.832421 -0.117135
0.588282 0.918739 -0.10008
0.235368 0.832226 -0.0384142
0.536374 0.994503 0.0355725
0.266599 0.99672 -0.07383
0.390124 0.828076 -0.23567
0.57775 0.959863 -0.0388804
0.23376 0.947302 -0.140859
0.596876 0.917834 -0.0302822
0.242969 0.938297 0.022375
0.285249 0.990804 -0.0138628
0.496657 0.944019 -0.185055
0.2744 0.831719 -0.175895
0.555311 0.975972 -0.0409653
0.460154 0.909369 -0.0783093
0.324332 0.869174 -0.224385
0.270298 0.94591 -0.177678
0.459823 0.908713 -0.0793096
0.320862 1.00444 0.0306542
0.250421 0.920213 0.0377007
0.37299 0.80107 0.0970683
0.32196 0.808262 0.0818271
0.528117 0.819466 0.0520524
0.580203 0.95744 -0.0390794
0.483428 0.836389 -0.114195
0.402081 0.988618 -0.153577
0.252905 0.99335 -0.104412
0.298818 0.887355 0.122276
0.347781 0.819839 0.0230709
0.588269 0.897355 0.0315173
0.454468 0.981111 -0.155239
0.499475 0.977959 -0.136489
0.270937 0.81703 0.0360098
0.363516 0.835566 -0.176206
0.240462 0.829342 -0.0191746
0.432542 0.912385 -0.0924818
0.444019 0.910626 -0.0877011
0.563135 0.830358 -0.140109
0.544513 0.976867 -0.0453597
0.393893 0.905127 -0.0916196
0.230409 0.935509 -0.00821967
0.574159 0.92648 -0.127999
0.44794 0.951401 -0.204385
0.303942 1.0049 -0.0732015
0.278452 1.00404 -0.0915008
0.363368 0.876916 -0.0495144
0.364096 0.899002 -0.00858313
0.252265 0.942381 -0.164043
0.297275 0.952118 -0.19029
0.319313 1.00375 0.0291332
0.299966 1.00385 0.0378257
0.266601 0.992101 -0.0425758
0.594356 0.915744 -0.0880649
0.336168 0.850729 -0.21585
0.365263 0.898079 -0.00734264
0.231962 0.933987 -0.0041084
0.370403 0.888718 -0.000609979
0.36275 0.897799 -0.0210298
0.327991 0.95229 -0.202705
0.366017 0.916327 -0.0637565
0.233504 0.96726 -0.124538
0.368608 0.906493 -0.00426426
0.345017 0.805754 0.0914964
0.380296 0.994155 -0.146262
0.303531 0.9961 0.0123891
0.425221 0.981431 -0.157745
0.281163 0.990868 -0.0195886
0.432459 0.981314 -0.158899
0.367851 0.90119 -0.0623601
0.313429 0.818297 0.0889188
0.308911 1.0058 -0.11558
0.336864 0.893707 0.137907
0.365748 0.897226 -0.0460918
0.449217 0.95285 -0.202265
0.341681 0.812008 0.0287516
0.587084 0.918746 -0.102708
0.352368 0.83779 -0.234153
0.57072 0.80997 -0.0145658
0.318134 1.0029 0.0275002
0.597041 0.915644 -0.0829033
0.566684 0.830466 -0.132818
0.479195 0.883514 0.135524
0.521798 0.824567 0.0515584
0.417419 0.974442 -0.116814
0.334646 0.852798 -0.21752
0.31455 0.817141 -0.0723347
0.37533 0.945959 -0.212975
0.219717 0.942887 -0.0749549
0.34531 0.841845 -0.205653
0.390503 0.944244 -0.215664
0.394984 0.879537 0.0221953
0.4144 0.805171 0.0977129
0.502302 0.978136 -0.134173
0.285115 0.987929 0.0402015
0.394006 0.879984 0.0218402
0.448106 0.951381 -0.204204
0.552102 0.985297 -0.0244593
0.603405 0.905353 -0.0131734
0.393544 0.888213 0.156564
0.486203 0.815155 0.0258557
0.251537 0.823237 0.00356883
0.243404 0.836362 -0.0731483
0.391655 0.889995 -0.0973411
0.476686 0.822279 0.0236317
0.238387 0.830551 -0.0262024
0.367519 0.897655 -0.0058322
0.525099 0.829035 0.0527944
0.572271 0.889593 0.0625567
0.305748 1.00527 -0.114262
0.420827 0.863578 0.0330479
0.47099 0.895454 -0.041034
0.452927 0.907653 -0.0832388
0.472222 0.890446 -0.0298274
0.581491 0.813154 -0.0441794
0.229364 0.947051 -0.127512
0.434357 0.911767 -0.0917325
0.474286 0.823911 0.0237912
0.424317 0.981356 -0.157167
0.539102 0.97677 -0.0809418
0.598215 0.915963 -0.0804206
0.460197 0.909379 -0.0779033
0.581377 0.922662 -0.114172
0.473399 0.889456 -0.00884132
0.244859 0.986523 -0.10919
0.451634 0.909402 -0.0842062
0.304921 1.00734 0.0377636
0.300069 0.951774 -0.192032
0.259885 0.831198 -0.156668
0.336986 0.8911 0.132488
0.378553 0.892395 0.15161
0.339563 0.893506 0.138401
0.545496 0.81056 0.0331452
0.437989 0.912701 -0.0904556
0.473771 0.890349 -0.020858
0.56772 0.82992 -0.129449
0.50478 0.819787 -0.132479
0.545007 0.991412 0.00616883
0.439852 0.942688 -0.209745
0.327187 0.985419 -0.0621121
0.330132 0.827494 -0.0711784
0.276928 0.99108 -0.0247566
0.471976 0.97994 -0.149288
0.276579 1.00365 -0.0890087
0.35534 0.802153 0.0917538
0.330811 0.982091 -0.0613998
0.404519 0.826898 -0.236779
0.58015 0.923289 -0.11639
0.422821 0.985733 -0.137824
0.350356 0.803472 0.0909545
0.364337 0.893447 0.144095
0.455477 0.806342 0.0895157
0.449359 0.806316 0.0909955
0.507347 0.806202 0.0745351
0.28161 0.813459 0.053139
0.297067 1.00597 -0.0757445
0.413419 0.885009 0.152806
0.568688 0.809663 -0.0113503
0.32911 1.00633 0.0365073
0.418819 0.86493 0.033358
0.528531 0.826531 -0.160059
0.323011 0.87184 -0.224506
0.597202 0.916684 -0.0289195
0.398847 0.801971 0.096426
0.34149 0.951732 -0.206238
0.347461 0.80465 0.0911762
0.337887 0.807063 0.0889922
0.353285 0.948672 -0.209523
0.583317 0.815744 -0.0604554
0.240635 0.839256 -0.0719413
0.361982 0.8937 0.143218
0.366228 0.897798 -0.00557777
0.544894 0.975832 -0.065936
0.264123 0.820327 -0.0746188
0.443767 0.910702 -0.0879442
0.552494 0.980917 -0.033297
0.419444 0.978451 -0.122537
0.528171 0.938628 -0.168263
0.367575 0.896739 -0.00574979
0.334233 0.893471 0.132616
0.247128 0.82528 -0.00364044
0.540603 0.992651 0.0180488
0.319721 0.808528 0.076532
0.328044 1.02111 0.0432595
0.572479 0.810192 -0.0182416
0.40917 0.866913 0.0310787
0.539973 0.993572 0.0267743
0.333065 0.807201 0.0872132
0.248552 0.942723 0.0288835
0.300466 0.804707 0.0737583
0.313434 0.820465 0.0916683
0.234502 0.832796 -0.041431
0.245896 0.825948 -0.00647993
0.244327 0.924806 0.0257635
0.589504 0.940042 -0.0363149
0.388635 0.802642 0.0986176
0.319272 0.849912 -0.212036
0.359496 0.893493 0.142414
0.31387 0.814073 0.0840561
0.430424 0.863603 0.0300526
0.474385 0.890615 -0.0124999
0.390123 0.904448 -0.089723
0.311576 0.845143 -0.207624
0.396218 0.905663 -0.0925893
0.405856 0.868714 0.0289331
0.453605 0.879587 0.00733315
0.543027 0.991887 0.0100096
0.31676 0.80678 0.07285
0.367202 0.898333 -0.0547617
0.436471 0.912055 -0.0908093
0.366398 0.892889 -0.00449586
0.463447 0.905369 -0.0701262
0.368413 0.83238 -0.234925
0.314172 0.950628 -0.196048
0.26027 0.959672 0.0337363
0.511953 0.966305 -0.048281
0.58753 0.896033 0.0334606
0.482122 0.805216 0.0822274
0.296907 0.811912 -0.0739861
0.33214 0.855918 -0.222536
0.328775 0.861249 -0.221117
0.511296 0.817944 -0.138603
0.376034 0.885895 0.00387687
0.387514 0.903331 -0.0880808
0.328697 0.950924 -0.202796
0.391827 0.991243 -0.150281
0.287356 0.810172 0.0600869
0.254617 0.994949 -0.102678
0.472776 0.819423 -0.220495
0.438298 0.982606 -0.179548
0.274269 0.815404 -0.0739195
0.262561 0.831634 -0.161125
0.389454 0.88987 0.155099
0.454923 0.905098 -0.0817086
0.566751 0.889024 0.0701365
0.444221 0.970764 -0.193478
0.60179 0.903348 -0.00302395
0.243202 0.939293 0.0215837
0.59456 0.915658 -0.0224876
0.338418 0.807892 0.0336744
0.592174 0.916867 -0.0921454
0.280557 0.897145 0.095443
0.595161 0.915475 -0.0231791
0.420242 0.864068 0.0332228
0.406652 0.82695 -0.236878
0.437179 0.885341 0.145607
0.219102 0.942935 -0.0578065
0.265245 0.996368 -0.0708072
0.253195 0.822605 0.00575869
0.409869 0.805546 0.0981108
0.401997 0.826891 -0.236498
0.377332 0.995182 -0.145648
0.325009 0.806594 0.0788528
0.363197 0.901316 -0.010408
0.421525 0.863107 0.0327537
0.454837 0.872277 0.00807601
0.321381 0.850937 -0.213403
0.466077 0.942385 -0.202097
0.38703 0.883213 0.0214015
0.418745 0.982559 -0.156752
0.576292 0.826475 -0.107062
0.320169 0.819936 -0.0719822
0.46021 0.909409 -0.0775177
0.297775 0.994399 0.00540326
0.401462 0.80271 0.0964103
0.489283 0.813084 0.0281251
0.42198 0.984869 -0.135186
0.379138 0.800429 0.0971593
0.453096 0.8923 -0.0900949
0.289257 1.00449 -0.102243
0.325706 0.800598 0.055178
0.453816 0.906501 -0.0825584
0.295931 0.887303 0.120429
0.576 0.811049 -0.0251492
0.287173 0.949477 -0.185727
0.594483 0.926648 -0.0334822
0.313373 0.846424 -0.208375
0.441873 0.974869 -0.189831
0.309345 0.844162 -0.206722
0.461178 0.941804 -0.205341
0.341508 0.839936 -0.229799
0.387042 0.888584 0.154167
0.356955 0.802174 0.0928462
0.375716 0.838497 -0.152621
0.291951 0.808328 0.0649186
0.322675 1.00597 -0.121397
0.37743 0.839322 -0.149306
0.380783 0.943645 -0.214756
0.219317 0.943415 -0.0799336
0.548652 0.978568 -0.038305
0.519953 0.973123 -0.0479552
0.397286 0.990169 -0.151936
0.440888 0.992122 0.121112
0.441264 0.981156 -0.158252
0.340924 0.806696 0.0901387
0.36695 0.896668 -0.0498117
0.427301 0.981292 -0.15823
0.544682 0.976141 -0.0710068
0.351913 0.837568 -0.195486
0.237236 0.831205 -0.0295153
0.463336 0.941786 -0.203976
0.510539 0.884376 0.117739
0.474614 0.910489 -0.0503717
0.437243 0.866771 0.0253334
0.315905 0.809133 0.0779058
0.525285 0.97693 -0.112475
0.368518 0.894102 -0.009361
0.595045 0.915548 -0.0228936
0.395647 0.802331 0.0974909
0.370036 0.893556 -0.0104171
0.339033 0.807033 0.0896224
0.252008 0.942552 -0.163062
0.448767 0.95248 -0.202702
0.401291 0.873473 0.0254268
0.366783 0.998108 -0.142992
0.333369 0.85473 -0.218718
0.472381 0.889022 -0.0258629
0.311147 0.949452 -0.194414
0.56092 0.830132 -0.143974
0.457498 0.981132 -0.154007
0.312036 0.950157 -0.194808
0.331213 0.807284 0.086708
0.367796 0.950021 -0.210628
0.251052 0.945959 -0.160696
0.250053 0.949728 -0.15812
0.527247 0.819327 0.0527066
0.290591 0.995466 0.0385246
0.243077 0.827588 -0.0128603
0.243089 0.982428 -0.11278
0.290357 0.950534 -0.186914
0.40038 0.875505 0.0243772
0.469407 1.00173 0.138886
0.470223 0.901311 -0.0492078
0.586558 0.895085 0.0362435
0.388564 0.904061 -0.0888275
0.366911 0.892552 -0.00345442
0.361018 0.801499 0.0943437
0.535679 0.977344 -0.0919384
0.301292 0.804352 0.0745611
0.537321 0.978976 -0.0431007
0.324252 0.807755 0.0826585
0.467612 0.882617 0.139899
0.48509 0.884325 0.132576
0.440375 0.912396 -0.0895681
0.362846 0.897589 -0.0315101
0.420847 0.982663 -0.130396
0.526828 0.819156 0.0528843
0.509568 0.813976 0.0418979
0.263062 0.995415 -0.0648759
0.260825 0.822184 -0.0746992
0.600879 0.913431 -0.0687135
0.529138 0.977038 -0.10638
0.219245 0.944994 -0.089529
0.535046 0.935837 -0.16511
0.599962 0.902963 0.00334456
0.471724 0.891632 -0.0336533
0.293323 1.00598 -0.0770999
0.235133 0.97178 -0.120469
0.362462 0.89727 -0.0247987
0.444611 0.966539 -0.196388
0.410942 0.866453 0.0320044
0.311563 0.999867 0.0192945
0.43822 0.82431 -0.234604
0.316476 0.809252 0.0789356
0.47454 0.890023 -0.0166221
0.240539 0.947325 -0.150528
0.348672 0.950522 -0.208592
0.540296 0.931423 -0.156554
0.335342 0.80198 0.0407384
0.257513 0.824318 -0.0744841
0.503541 0.820599 -0.130897
0.546612 0.975942 -0.0506685
0.444831 0.980969 -0.157919
0.471303 0.892826 -0.0366778
0.236949 0.831978 -0.0739116
0.387241 0.90203 -0.0873545
0.577531 0.811472 -0.0287103
0.510469 0.942366 -0.177281
0.21977 0.94607 -0.0940351
0.434492 0.981404 -0.158733
0.583497 0.952486 -0.0386526
0.264091 0.819272 0.0238533
0.391809 0.904718 -0.0906246
0.427761 0.912533 -0.0938041
0.450349 0.910161 -0.0849657
0.362382 0.897791 -0.0283514
0.231835 0.833704 -0.0730098
0.445875 0.806715 0.0921026
0.552429 0.98192 -0.0321237
0.315137 0.952358 -0.198378
0.471174 0.893699 -0.0382214
0.277074 0.832676 -0.179722
0.366335 0.892592 0.145002
0.458768 0.942863 -0.205737
0.237816 0.929533 0.0109934
0.423401 0.884635 0.149846
0.357139 0.892871 0.141609
0.599507 0.914913 -0.0765585
0.241244 0.980395 -0.114556
0.519706 0.823372 -0.190756
0.488013 0.882921 0.131345
0.548908 0.97786 -0.0412142
0.537778 0.977364 -0.0893345
0.42645 0.941615 -0.213615
0.323144 0.801324 0.0600325
0.380311 0.841519 -0.142071
0.542529 0.93054 -0.15646
0.270081 0.906462 0.0731505
0.470472 0.886503 -0.00393805
0.58541 0.91972 -0.106464
0.600547 0.912913 -0.0682501
0.535964 0.839216 -0.1675
0.435919 0.981284 -0.158607
0.37002 0.889674 -0.000720322
0.224159 0.944903 -0.115953
0.234448 0.969516 -0.122723
0.265406 0.831685 -0.165307
0.546528 0.975866 -0.0508229
0.415877 0.970524 -0.112434
0.593145 0.929298 -0.0339746
0.505424 0.811862 0.0397776
0.515011 0.817892 -0.143756
0.222995 0.944253 -0.108405
0.249401 0.989972 -0.107437
0.327888 0.954249 -0.202751
0.349655 0.821588 0.0220224
0.448914 0.875461 0.013672
0.302016 0.804656 0.0780331
0.276971 0.900769 0.0880651
0.45211 0.892426 -0.089875
0.239271 0.928285 0.0147216
0.304973 0.802101 0.0812183
0.370674 0.800902 0.0962494
0.253887 0.916838 0.0453218
0.488675 0.806243 0.0817701
0.290592 0.811774 -0.0742753
0.474053 0.890341 -0.0106504
0.297538 1.00199 0.0377108
0.417362 0.864679 0.0335231
0.353843 1.00046 -0.137585
0.552525 0.98287 -0.0305727
0.219153 0.943994 -0.0847609
0.247673 0.988392 -0.108271
0.38288 0.884353 0.0201425
0.254423 0.826372 -0.0744081
0.542133 0.814955 0.0442492
0.47226 0.889352 -0.0271233
0.419684 0.979489 -0.125516
0.506623 0.819025 -0.134164
0.263186 0.945921 -0.173496
0.337165 0.805442 0.0364453
0.264507 0.945137 -0.174587
0.306925 0.945382 -0.193062
0.246288 0.833515 -0.0740997
0.541196 0.992473 0.0138815
0.557021 0.886292 0.0734256
0.421331 0.983926 -0.132589
0.267454 0.818428 -0.0743784
0.277378 0.81424 -0.0741351
0.542883 0.979138 -0.0421376
0.599798 0.907872 -0.0344833
0.597828 0.914365 -0.0269642
0.418508 0.876524 0.0287345
0.439476 0.979038 -0.184431
0.437092 0.9813 -0.158501
0.365602 0.894801 -0.00597134
