ply
format ascii 1.0
element vertex 1148
property float x
property float y
property float z
end_header
0.581239 1.02238 0.217741
0.57994 1.02088 0.219907
0.492364 1.00206 0.150018
0.521469 1.00556 0.165322
0.4839 1.08879 0.161789
0.578789 1.01957 0.222294
0.567759 1.04126 0.196178
0.536158 1.00752 0.172799
0.577469 1.01829 0.225036
0.535698 0.987212 0.298017
0.558699 1.12303 0.227941
0.557329 1.12934 0.230156
0.557509 1.04547 0.192077
0.592536 1.04488 0.217759
0.572481 1.01418 0.234318
0.585789 1.03163 0.207082
0.579034 1.03465 0.201162
0.574957 1.03689 0.199371
0.589196 1.05064 0.226067
0.406209 0.929126 0.465949
0.418597 0.933714 0.471597
0.461771 0.961604 0.502436
0.460442 0.944794 0.491203
0.463492 0.937218 0.478739
0.456279 0.94451 0.489205
0.46094 0.96469 0.502603
0.463075 0.937105 0.48096
0.463409 0.936988 0.477027
0.475803 0.938418 0.498704
0.477971 0.948204 0.431507
0.470614 0.928715 0.493189
0.470735 0.926461 0.492415
0.430443 0.939212 0.476982
0.424386 0.93656 0.474212
0.457764 0.981238 0.503339
0.460041 0.968171 0.502776
0.456629 0.986558 0.503894
0.492423 0.987501 0.469189
0.474714 0.94739 0.439306
0.475514 0.949912 0.496492
0.475915 0.949735 0.496933
0.453602 1.00332 0.506036
0.469234 0.944501 0.454507
0.451727 0.944143 0.487083
0.464372 0.942368 0.483934
0.443672 1.03955 0.513675
0.442121 1.04427 0.514666
0.438218 1.05885 0.51855
0.445343 1.03468 0.512619
0.450183 1.01629 0.508237
0.447763 1.02524 0.510107
0.570396 1.03993 0.197356
0.446684 1.02986 0.511357
0.454461 0.999338 0.505446
0.517817 0.972367 0.33797
0.503328 0.961113 0.373768
0.495818 1.00263 0.458302
0.510343 0.966817 0.355213
0.567876 1.0859 0.215336
0.53672 1.0768 0.3054
0.458162 1.26803 0.409672
0.553413 1.15021 0.236345
0.554606 1.14085 0.233628
0.420329 1.15902 0.533745
0.4213 1.15433 0.53321
0.417836 1.18029 0.534803
0.390459 1.22264 0.520865
0.417487 1.18416 0.535153
0.473171 1.27836 0.376207
0.475282 1.27975 0.372213
0.486762 1.28848 0.349711
0.535876 1.25551 0.273479
0.517515 1.25151 0.333465
0.477336 1.28112 0.368303
0.500181 1.30021 0.324981
0.491463 1.29357 0.339157
0.397098 1.26865 0.318114
0.456452 1.267 0.412538
0.347443 1.21954 0.494086
0.528764 1.28263 0.28359
0.413859 1.23648 0.513661
0.466291 1.2737 0.391402
0.469952 0.925907 0.488054
0.415315 1.23724 0.510735
0.516199 1.2392 0.340628
0.490249 1.29173 0.342731
0.488592 1.29005 0.346193
0.498746 1.29902 0.327502
0.420128 1.27667 0.31665
0.424117 1.27792 0.315497
0.479028 1.09254 0.160429
0.579306 1.03888 0.203366
0.427771 1.2788 0.314499
0.481528 1.28394 0.360774
0.582345 1.02393 0.215747
0.456969 1.28562 0.310655
0.534871 1.2588 0.274213
0.454825 1.26581 0.415638
0.453385 1.2645 0.418913
0.523114 1.30213 0.295743
0.494832 1.29678 0.332551
0.520673 1.28996 0.2601
0.492886 1.29537 0.335658
0.486486 1.29474 0.306937
0.52474 1.29609 0.292094
0.532788 1.265 0.275512
0.52572 1.29538 0.292206
0.525854 1.29423 0.291293
0.467643 0.940436 0.499067
0.494807 1.23497 0.205515
0.541389 1.22484 0.260209
0.523944 1.29642 0.291648
0.511758 1.26306 0.23477
0.537551 1.24107 0.266232
0.462371 1.28707 0.308904
0.499665 1.30105 0.300239
0.516219 1.30638 0.29782
0.499738 1.30433 0.298567
0.523232 1.30351 0.303434
0.488136 1.2951 0.306577
0.53178 1.26863 0.276921
0.464458 1.27252 0.395687
0.499775 1.29911 0.304296
0.450399 1.28399 0.310854
0.547638 1.01111 0.181018
0.542162 1.22064 0.258656
0.570518 1.01257 0.238271
0.539488 1.05416 0.184207
0.566453 1.09212 0.21783
0.546713 0.995494 0.277148
0.541164 0.991176 0.287833
0.461567 1.10984 0.154813
0.497952 1.07981 0.166502
0.539275 1.07436 0.300928
0.538372 0.989119 0.292934
0.239261 0.94611 0.154771
0.580102 1.05603 0.241582
0.517971 1.30273 0.304332
0.584388 1.02812 0.210022
0.578346 1.04075 0.205876
0.560176 1.00429 0.255045
0.443618 1.18675 0.486945
0.441759 1.18952 0.49185
0.414565 1.23683 0.512259
0.465076 1.28802 0.307564
0.410608 1.30978 0.233714
0.583641 1.05438 0.236031
0.53377 1.26177 0.274687
0.521164 1.30342 0.2963
0.481732 0.949351 0.423236
0.497388 1.23924 0.210533
0.431578 1.27971 0.313838
0.435418 1.28039 0.313827
0.490846 1.29614 0.303685
0.414386 1.20623 0.534819
0.413982 1.20845 0.534756
0.462977 1.2715 0.399477
0.529504 1.28081 0.283048
0.520355 1.31 0.278566
0.463738 0.938434 0.472803
0.520515 1.3081 0.277022
0.46332 0.937203 0.480224
0.517417 1.30465 0.301193
0.517583 1.30174 0.30557
0.509678 1.31414 0.29138
0.492222 1.29636 0.303159
0.496912 1.29789 0.329992
0.484004 1.29411 0.306443
0.48122 1.29334 0.305824
0.407323 1.2723 0.318095
0.462864 1.18873 0.153742
0.36792 1.30116 0.211812
0.372453 1.30252 0.214556
0.377363 1.30354 0.217233
0.424705 1.24307 0.48768
0.358886 1.29878 0.206374
0.353662 1.29779 0.203508
0.507664 1.31426 0.290239
0.580679 1.03375 0.201897
0.342672 1.29594 0.197717
0.557512 1.0024 0.259341
0.285345 1.28814 0.164986
0.307101 1.29136 0.179116
0.535223 1.05584 0.182373
0.530842 1.05778 0.180477
0.558051 1.06283 0.272226
0.560873 1.06202 0.268277
0.276297 1.28697 0.159554
0.285543 1.23625 0.124177
0.57991 1.03811 0.202884
0.167538 1.23919 0.183791
0.523134 1.30124 0.295555
0.337768 1.29479 0.19499
0.551135 1.16291 0.239854
0.376714 1.07706 0.0637143
0.333318 1.29354 0.192509
0.445202 1.25773 0.436628
0.246639 1.16923 0.0849203
0.135622 1.20393 0.244214
0.225815 1.23939 0.109239
0.22854 1.22956 0.104285
0.318434 1.29158 0.184879
0.290552 1.23351 0.124272
0.162652 1.23416 0.190496
0.475699 1.00107 0.139486
0.0923899 1.15565 0.329082
0.220095 1.28085 0.127462
0.538734 1.23622 0.264279
0.155297 1.22662 0.20538
0.231343 1.22211 0.10205
0.194705 1.26257 0.129261
0.224477 1.28038 0.129489
0.498699 1.29871 0.304065
0.499754 1.29955 0.302037
0.500151 1.29931 0.303273
0.271524 1.28678 0.157158
0.266102 1.24704 0.124135
0.142746 1.21236 0.230527
0.229113 1.20785 0.340196
0.506481 1.07337 0.169696
0.424 1.22266 0.538975
0.317802 1.21763 0.125174
0.143489 0.923653 0.346573
0.509378 1.17811 0.369301
0.275824 1.24151 0.124208
0.357109 1.21968 0.498157
0.37813 1.22138 0.511437
0.321049 0.91349 0.429465
0.392539 1.26687 0.318369
0.289652 1.289 0.167947
0.409648 1.23301 0.527277
0.432134 1.24747 0.470288
0.241022 0.905586 0.397785
0.361495 1.21978 0.50063
0.413807 1.21077 0.535119
0.527096 1.28576 0.284516
0.0982032 1.08879 0.345501
0.521356 1.28281 0.317507
0.194877 1.2637 0.128326
0.408191 1.22977 0.539146
0.313498 1.00324 0.0433159
0.407768 1.22863 0.538749
0.442808 1.25511 0.443671
0.518757 1.28624 0.25738
0.409511 1.23313 0.526776
0.409417 1.23328 0.526184
0.212584 1.27979 0.12294
0.255438 1.17304 0.453355
0.493703 1.29667 0.303151
0.413097 0.931131 0.469062
0.530017 1.27857 0.282014
0.473378 1.29063 0.306893
0.236275 1.20444 0.0962479
0.434704 1.24939 0.463267
0.251081 0.956367 0.112143
0.234218 1.21294 0.0993102
0.345155 0.91537 0.438649
0.408378 1.22432 0.532317
0.433342 1.13481 0.146364
0.410217 1.23352 0.524837
0.423569 1.24242 0.490167
0.369748 1.22054 0.505951
0.436175 1.25045 0.45966
0.449857 1.17745 0.471453
0.42162 1.24118 0.494888
0.386969 1.22149 0.517753
0.55484 1.00076 0.263473
0.339898 1.03735 0.0509819
0.366818 1.06817 0.059813
0.216569 1.26635 0.123043
0.476043 0.949308 0.497138
0.455207 0.995175 0.504894
0.381089 1.17551 0.133451
0.475702 0.948964 0.497041
0.418383 1.17623 0.534752
0.251164 1.1492 0.0786621
0.113839 1.03265 0.343612
0.470362 0.927016 0.492264
0.438464 1.1949 0.500896
0.42072 1.24052 0.497476
0.416684 1.19548 0.536085
0.115687 1.02257 0.342521
0.116634 1.01836 0.342221
0.516004 1.30816 0.29653
0.258557 1.28623 0.150782
0.254082 1.28618 0.148662
0.15677 1.15022 0.404296
0.522266 1.2902 0.31373
0.52527 1.29589 0.292354
0.248727 1.25537 0.123673
0.167301 1.18904 0.346441
0.0926064 1.16182 0.35932
0.103231 1.07396 0.345683
0.0858117 1.14643 0.359081
0.115381 1.17748 0.291119
0.195415 0.934016 0.264588
0.454284 1.17063 0.461124
0.0855527 1.1477 0.359335
0.0908725 1.16119 0.358217
0.12154 0.99435 0.340303
0.548728 1.17707 0.24379
0.185038 1.19432 0.342682
0.507289 1.14575 0.384747
0.114291 1.13955 0.37006
0.549749 1.06706 0.284925
0.257029 1.12625 0.0727482
0.441647 1.25387 0.44748
0.521364 1.30533 0.297744
0.129309 0.969497 0.342879
0.0888194 1.14139 0.356206
0.145202 0.918867 0.34712
0.0886552 1.14611 0.35308
0.130414 0.966681 0.343548
0.51705 1.30528 0.299882
0.409547 1.22478 0.533477
0.0854574 1.14751 0.359912
0.127007 0.9771 0.340993
0.490133 0.979448 0.474548
0.118229 1.01154 0.341173
0.0896886 1.1608 0.357153
0.190929 0.929412 0.27373
0.132073 1.14513 0.389236
0.14132 0.930365 0.346057
0.158975 1.18658 0.348375
0.513755 1.27087 0.243313
0.125164 1.14068 0.379311
0.107826 1.16872 0.305712
0.352645 1.05256 0.0546452
0.424227 1.22185 0.538788
0.0886863 1.13484 0.352873
0.0871619 1.1434 0.356465
0.245104 1.28567 0.144051
0.177753 1.2504 0.164084
0.470559 0.929339 0.49352
0.109643 1.05035 0.343968
0.516055 1.30743 0.296886
0.104312 1.07055 0.346019
0.148533 1.14874 0.400271
0.578649 1.04035 0.205476
0.11075 1.04613 0.344752
0.0904693 1.11754 0.349831
0.260714 0.966067 0.0825771
0.0911156 1.11429 0.34935
0.452093 1.26317 0.422208
0.106949 1.13754 0.366613
0.4081 1.22782 0.538335
0.46451 0.939479 0.469619
0.328797 1.29254 0.19008
0.410816 1.23354 0.524289
0.502232 1.07641 0.16806
0.0970895 1.09269 0.346124
0.425832 1.24382 0.484918
0.0955401 1.09732 0.34652
0.165641 0.897748 0.36598
0.18205 1.25269 0.15188
0.0991416 1.16425 0.362029
0.186721 0.926895 0.280509
0.101507 1.16502 0.361781
0.457373 1.11417 0.153358
0.479928 0.9487 0.42767
0.26242 0.970647 0.0674855
0.171223 1.19014 0.345324
0.101714 1.07759 0.345035
0.521135 1.09267 0.331782
0.0984554 1.15918 0.321163
0.545917 1.19718 0.249676
0.483564 0.950321 0.418264
0.429207 1.24615 0.476085
0.439756 1.28123 0.313671
0.497526 1.01135 0.453222
0.0970463 1.16346 0.361514
0.5082 1.16223 0.377072
0.0892139 1.14842 0.352538
0.560061 1.11653 0.225536
0.106739 1.06293 0.344695
0.124609 0.985445 0.340252
0.528682 1.08373 0.318747
0.249023 1.15918 0.0816985
0.123445 0.988353 0.340426
0.152605 0.887023 0.346605
0.530931 1.27225 0.278563
0.152969 0.888262 0.346492
0.503826 1.11199 0.363836
0.154449 0.892273 0.335173
0.392327 1.09555 0.0731868
0.159791 0.899289 0.325381
0.216807 1.28079 0.125768
0.174067 0.916307 0.298452
0.158649 0.898749 0.327649
0.168934 0.911343 0.305914
0.543757 1.20901 0.253804
0.325409 0.994689 0.0458933
0.412923 1.23549 0.517158
0.0889967 1.12795 0.352791
0.139458 0.937463 0.3459
0.41126 1.21943 0.536899
0.167557 0.909789 0.308503
0.583175 1.02541 0.213603
0.119018 1.00774 0.340575
0.137939 1.17973 0.35149
0.280672 1.23881 0.12416
0.18861 0.927996 0.277629
0.229029 0.904276 0.393512
0.455881 0.990832 0.504371
0.472068 1.20187 0.168778
0.24505 1.25753 0.123726
0.133518 0.955512 0.344595
0.418852 1.14695 0.14234
0.128083 1.1929 0.259073
0.468715 1.19723 0.163709
0.229364 1.26612 0.123789
0.465605 1.1929 0.158606
0.58524 1.03043 0.208014
0.234258 1.20929 0.339992
0.525646 1.29236 0.289434
0.54484 1.20273 0.251448
0.259245 1.11625 0.0703668
0.235414 1.26323 0.124025
0.370442 1.0712 0.0611578
0.415997 1.23772 0.508852
0.35722 1.05881 0.0565476
0.415166 1.31064 0.235971
0.362224 0.993287 0.0572315
0.327205 1.0207 0.0460649
0.248558 0.953603 0.119944
0.247402 0.952658 0.123851
0.267051 1.28682 0.155083
0.494192 0.994917 0.463977
0.221655 1.26729 0.123444
0.261485 1.24902 0.123868
0.530374 1.27575 0.280402
0.265485 1.095 0.0667247
0.174439 1.24722 0.171589
0.474429 1.09679 0.159085
0.0864372 1.14475 0.357947
0.471177 1.27707 0.380192
0.499708 1.30185 0.300054
0.120761 0.998097 0.340189
0.470344 0.926537 0.49111
0.465756 1.10552 0.156264
0.145961 0.915935 0.347609
0.252786 1.25299 0.123663
0.245579 1.21309 0.338403
0.262834 1.28653 0.152947
0.35572 0.917148 0.443015
0.151895 0.8965 0.348211
0.210073 1.27959 0.121515
0.424914 1.2203 0.537576
0.575887 1.01698 0.228009
0.509434 1.25834 0.230249
0.0955808 1.13946 0.359683
0.574996 1.0443 0.20907
0.500471 1.29933 0.304198
0.222451 1.24801 0.11313
0.578802 1.03981 0.204251
0.252519 0.957284 0.108414
0.243939 0.951292 0.135221
0.26199 0.970543 0.0700865
0.50075 1.11542 0.369316
0.533063 0.985293 0.303086
0.290424 0.99759 0.0447006
0.291528 0.993891 0.0443481
0.388054 1.265 0.319111
0.111557 1.17314 0.298702
0.261611 0.974825 0.0632611
0.233236 1.26455 0.124165
0.412597 1.23527 0.518149
0.193297 0.931477 0.26921
0.261497 0.974988 0.0639531
0.290289 1.0004 0.0451225
0.288556 1.0057 0.0454746
0.262284 0.970424 0.0686179
0.508051 0.964911 0.361641
0.262161 0.972242 0.0660428
0.262393 0.971198 0.0666861
0.261626 0.97449 0.0646837
0.160708 0.900093 0.323277
0.262012 0.973437 0.0653288
0.255324 0.958736 0.101709
0.256256 0.959886 0.0990345
0.562509 1.10714 0.222727
0.510882 1.19427 0.361546
0.240477 0.947438 0.149789
0.416149 1.27537 0.317619
0.115216 1.14161 0.373579
0.464082 0.945614 0.493054
0.314725 1.00642 0.0444087
0.579009 1.03945 0.203744
0.309917 1.0028 0.0394986
0.312291 1.00296 0.0415749
0.125785 0.98165 0.340384
0.0915174 1.14058 0.357984
0.20086 1.19942 0.342203
0.254097 0.957902 0.104746
0.315416 1.00875 0.0449113
0.271735 1.07482 0.0621481
0.163465 0.905679 0.317119
0.131447 0.963384 0.344
0.261565 0.970552 0.0731555
0.322049 0.991562 0.0464551
0.413536 1.21318 0.535616
0.440037 1.19212 0.496383
0.569114 1.06 0.257163
0.310554 1.00257 0.0400432
0.311618 1.00317 0.0407142
0.407934 1.2293 0.539015
0.258749 0.964402 0.0899537
0.590052 1.04967 0.224373
0.555631 1.01638 0.187691
0.34942 0.995578 0.0517561
0.481318 0.944852 0.495395
0.312204 1.00345 0.042357
0.555286 1.06406 0.276367
0.155685 0.895192 0.33308
0.311343 1.00229 0.0407293
0.459858 1.2691 0.406639
0.272112 1.2224 0.332933
0.217932 0.933403 0.204071
0.316426 1.0102 0.0452097
0.14794 0.897299 0.356621
0.341102 0.994047 0.0500382
0.15896 0.897865 0.362797
0.334316 1.03115 0.0489026
0.445572 1.18373 0.481807
0.347968 1.04628 0.0531503
0.523808 1.08939 0.326894
0.35486 1.0556 0.055524
0.242748 0.950066 0.139834
0.410567 1.23353 0.5247
0.35052 1.04958 0.0540072
0.571879 1.07253 0.211574
0.190162 1.19604 0.341948
0.522541 1.06258 0.176595
0.0874015 1.14248 0.356063
0.526564 1.06009 0.178484
0.552081 0.999201 0.267499
0.452526 1.0075 0.506725
0.549395 0.997486 0.271994
0.328912 1.02304 0.0465121
0.526335 1.08626 0.322501
0.523307 1.29915 0.293181
0.440606 1.04908 0.51585
0.503289 1.06873 0.422785
0.571741 1.0594 0.253572
0.45208 1.17408 0.46629
0.321798 1.21029 0.482668
0.456716 1.16702 0.45567
0.207601 0.939281 0.233253
0.232479 0.946299 0.175321
0.436582 0.940896 0.479828
0.57432 1.05841 0.249926
0.552404 1.15613 0.237982
0.39852 1.10359 0.0779992
0.57065 1.07606 0.21219
0.487885 0.97083 0.480371
0.448294 1.00049 0.123519
0.424557 1.22108 0.538385
0.578491 1.05642 0.24386
0.565325 1.00848 0.24621
0.31193 1.22052 0.124683
0.0930154 1.14011 0.358719
0.584568 1.0324 0.203879
0.585273 1.0329 0.204146
0.427858 1.24548 0.478935
0.317461 1.01151 0.0453437
0.578759 1.04013 0.204899
0.320538 1.01445 0.0452912
0.238761 1.28229 0.138622
0.318742 1.01276 0.0452507
0.162348 0.903532 0.319437
0.520276 1.27339 0.321706
0.0948686 1.16263 0.360595
0.092086 1.10886 0.348672
0.463961 0.938994 0.471552
0.447198 0.943376 0.484973
0.467998 1.28897 0.306991
0.464211 0.93927 0.470476
0.488819 1.08601 0.16337
0.471976 0.949199 0.495095
0.122472 0.991104 0.340447
0.498873 0.957616 0.385559
0.447627 1.18062 0.476658
0.476336 0.939719 0.500448
0.401346 1.10776 0.0804835
0.332215 1.21569 0.487012
0.563713 1.06124 0.264452
0.565054 1.09815 0.220182
0.349172 1.25053 0.324109
0.280863 1.28746 0.162175
0.358994 1.19142 0.130079
0.203134 0.93485 0.244034
0.498843 1.02116 0.448623
0.467324 0.942901 0.461446
0.543474 1.05249 0.185916
0.302745 1.20091 0.474703
0.206028 1.20095 0.342378
0.429055 1.21274 0.528193
0.497589 1.29807 0.303754
0.495089 1.29698 0.303344
0.307075 0.979495 0.0533853
0.329132 1.2124 0.12643
0.463591 0.937232 0.475942
0.544369 1.07028 0.292924
0.495945 1.29739 0.303429
0.354085 1.1957 0.129595
0.201093 0.935277 0.24903
0.112966 1.03752 0.344624
0.280631 1.18472 0.464477
0.512426 1.21019 0.35459
0.406945 1.22452 0.531641
0.152364 0.89461 0.348072
0.473383 0.949471 0.495507
0.196215 1.26479 0.125938
0.182331 0.898454 0.373057
0.467423 0.941762 0.499485
0.227393 0.942618 0.188583
0.315194 0.985296 0.0488012
0.466661 0.941968 0.464402
0.482421 0.949478 0.492628
0.205343 0.93615 0.238662
0.576946 1.04216 0.206596
0.549834 1.17038 0.241994
0.369174 1.25776 0.323407
0.384969 1.22093 0.516016
0.139291 1.20844 0.237516
0.583092 1.0326 0.203264
0.411491 1.23463 0.520804
0.312516 1.00322 0.0428166
0.501081 0.959285 0.379734
0.586067 1.03258 0.206279
0.12417 1.13982 0.377986
0.410911 1.23376 0.52357
0.476554 1.14344 0.415674
0.540521 1.22824 0.261252
0.311974 1.00249 0.0413041
0.15874 1.23027 0.197324
0.181155 1.15321 0.416354
0.517813 1.30373 0.302606
0.215532 0.93972 0.209268
0.171348 0.914217 0.30221
0.263474 1.17615 0.457204
0.522231 1.30177 0.295591
0.256929 0.961317 0.0966525
0.515255 1.09837 0.342385
0.465884 0.940931 0.466975
0.518183 1.09553 0.337033
0.188121 1.25683 0.139548
0.165139 1.15138 0.408328
0.584777 1.02931 0.208819
0.430658 1.24678 0.473358
0.515214 0.970554 0.34338
0.125219 1.14129 0.380083
0.485682 0.962739 0.484996
0.413528 1.23614 0.514889
0.442248 0.942331 0.482558
0.392456 1.22254 0.522532
0.39439 1.22229 0.524212
0.0887976 1.13059 0.352749
0.547325 1.18745 0.246561
0.373792 1.22121 0.508695
0.274818 1.0597 0.0566104
0.230639 0.944107 0.180709
0.470179 0.926928 0.491717
0.546797 1.19216 0.248166
0.555803 1.13543 0.232079
0.354413 1.25241 0.32368
0.479499 1.14001 0.410083
0.131773 1.19833 0.251203
0.465191 0.940048 0.468525
0.506829 1.10847 0.358349
0.199464 0.936239 0.253297
0.298218 0.912522 0.420197
0.314811 1.0051 0.0444424
0.471299 0.927692 0.492917
0.523201 1.30003 0.304926
0.474663 0.949819 0.49596
0.333344 0.914109 0.434127
0.572792 1.03839 0.198444
0.184333 0.925699 0.284232
0.501217 1.04272 0.435251
0.173763 0.897809 0.369435
0.293557 1.19386 0.469998
0.218179 0.903654 0.389377
0.297866 1.23207 0.330706
0.552528 1.06556 0.280704
0.574216 1.01558 0.230993
0.150076 1.18383 0.349106
0.550408 1.04889 0.189052
0.196664 1.26561 0.125204
0.413217 1.23578 0.516122
0.390824 0.99877 0.0805239
0.330265 1.02528 0.0469302
0.0943953 1.10082 0.347026
0.572994 1.06889 0.210676
0.450734 1.26186 0.425437
0.409693 1.2333 0.525242
0.224693 1.2664 0.123053
0.223263 1.26689 0.123166
0.232774 1.16353 0.441876
0.22617 1.26635 0.12328
0.385525 1.08768 0.0686422
0.574047 1.06468 0.209312
0.443528 1.12685 0.149161
0.502307 1.05539 0.429042
0.510976 1.31414 0.292451
0.367705 0.999847 0.0659075
0.107837 1.05896 0.343639
0.314434 1.23843 0.32928
0.587058 1.05254 0.230057
0.488365 1.12929 0.392833
0.479463 1.28251 0.364419
0.469977 1.10121 0.157698
0.430143 1.21133 0.525637
0.414171 1.15132 0.141008
0.364515 1.2561 0.323489
0.542859 1.21527 0.256401
0.575733 1.05561 0.205588
0.229438 0.942836 0.185174
0.409209 1.15528 0.139588
0.223835 0.937378 0.194279
0.525127 0.978641 0.320109
0.470756 0.928172 0.492902
0.423771 1.22356 0.539432
0.152415 0.885607 0.346676
0.467685 1.15378 0.432824
0.449362 1.26067 0.428351
0.412247 1.23503 0.519172
0.395583 1.09955 0.0756392
0.487521 0.952249 0.408189
0.446557 1.25876 0.433647
0.56928 1.08032 0.213306
0.475813 1.20724 0.17409
0.468187 0.943736 0.458094
0.43845 1.13078 0.147719
0.292582 1.23005 0.33073
0.499525 1.30021 0.300731
0.256877 1.25085 0.12367
0.58392 1.02687 0.211612
0.148031 0.908151 0.348764
0.536763 1.24649 0.268942
0.339322 1.20664 0.127746
0.514264 1.27437 0.247356
0.42807 1.21391 0.529918
0.334377 1.20964 0.127106
0.241641 0.948705 0.144756
0.157476 0.897943 0.329835
0.411694 0.999271 0.0956456
0.44739 1.28331 0.31125
0.410974 1.23399 0.522797
0.147233 0.910589 0.348669
0.459317 0.971612 0.502755
0.483027 1.21722 0.184726
0.510679 1.07063 0.171406
0.33955 1.24741 0.325046
0.110103 1.16865 0.355938
0.248249 1.16951 0.449489
0.52765 0.980987 0.314009
0.220593 1.2537 0.116474
0.0886275 1.13329 0.352641
0.491396 1.12577 0.386931
0.0880078 1.15117 0.352177
0.416458 1.19856 0.536041
0.382161 1.22094 0.513909
0.253518 0.906906 0.402171
0.494505 1.12229 0.380918
0.359997 1.06184 0.0575082
0.577571 1.04132 0.206122
0.112332 1.1397 0.368608
0.23343 1.2795 0.133771
0.419706 1.23989 0.499882
0.427149 1.21522 0.531456
0.403972 1.15913 0.138092
0.134602 0.951373 0.345114
0.286398 1.02429 0.0484392
0.525794 1.29015 0.287482
0.389756 0.925792 0.458656
0.458747 0.975101 0.50285
0.491954 1.23035 0.200276
0.443713 1.28223 0.312676
0.259112 1.2177 0.336172
0.287005 1.02781 0.049272
0.153229 0.888857 0.346582
0.1289 1.14419 0.385811
0.523357 1.2976 0.292041
0.149891 0.903054 0.348113
0.319667 1.24044 0.328524
0.388898 1.09155 0.0707805
0.314781 1.0075 0.0445735
0.453066 1.11858 0.151978
0.431061 1.20942 0.52258
0.213046 0.94596 0.214996
0.51231 1.10153 0.347725
0.261022 0.966929 0.0805037
0.586447 1.03347 0.205837
0.583896 1.03221 0.203658
0.47064 1.15034 0.426941
0.411689 1.27376 0.318025
0.379552 1.08042 0.0651928
0.195655 1.19782 0.341841
0.592568 1.04486 0.21733
0.39841 0.927296 0.462491
0.231271 1.2656 0.124084
0.53969 1.23199 0.262651
0.2381 1.26154 0.123837
0.196916 0.935753 0.260684
0.122269 1.13917 0.376331
0.277045 1.22412 0.331871
0.257485 0.962666 0.0943798
0.470862 1.28988 0.306965
0.34918 1.19983 0.129089
0.170555 1.24415 0.178183
0.258053 0.963724 0.0922257
0.41687 1.19191 0.535935
0.205634 1.156 0.429158
0.22392 1.16098 0.437792
0.42641 1.21666 0.532913
0.471905 0.946062 0.447274
0.128135 0.972816 0.341834
0.464736 1.15687 0.438758
0.32381 1.29189 0.187544
0.440348 1.2528 0.451132
0.297919 1.19751 0.472205
0.220052 1.20506 0.341078
0.38873 1.22214 0.519333
0.485066 1.28699 0.35338
0.214781 1.15859 0.433504
0.399057 1.22376 0.527712
0.151358 0.898454 0.348187
0.411907 1.23481 0.52004
0.215288 1.20362 0.341765
0.125672 1.14336 0.382607
0.28783 1.18943 0.467472
0.461926 1.16003 0.444564
0.492161 0.954175 0.39955
0.208342 0.903178 0.385306
0.300754 1.22715 0.124325
0.0887765 1.14745 0.353073
0.0896094 1.1227 0.350914
0.089309 1.12435 0.351771
0.422565 1.24183 0.492421
0.36324 1.06489 0.0584885
0.11012 1.13986 0.367029
0.0985588 1.13925 0.360903
0.261771 0.970603 0.0715562
0.401856 1.22431 0.529311
0.364943 0.919242 0.447107
0.375973 1.00382 0.0740263
0.553876 1.14556 0.234976
0.229388 1.27965 0.131664
0.119625 1.17271 0.355123
0.227655 1.26632 0.123497
0.576625 1.05723 0.246571
0.513079 1.26738 0.23923
0.342444 1.03987 0.0513904
0.582045 1.03311 0.20264
0.581824 1.05536 0.239007
0.105827 1.16666 0.358877
0.588298 1.05159 0.227778
0.120106 1.18603 0.275396
0.485405 0.951217 0.413101
0.324815 1.24233 0.327611
0.478421 1.2924 0.305746
0.527846 1.28415 0.283811
0.410999 1.23428 0.522002
0.401998 1.27045 0.318015
0.303212 0.975921 0.0552801
0.117342 1.18212 0.282967
0.17536 1.1913 0.344559
0.108715 1.05469 0.343411
0.105017 1.13968 0.36398
0.23969 1.21103 0.339343
0.383426 1.2632 0.320186
0.516582 1.30551 0.299062
0.295584 1.23045 0.124306
0.214346 1.26524 0.122633
0.237447 0.940553 0.164648
0.365752 1.22 0.503159
0.21789 1.25876 0.119639
0.197162 1.15459 0.424806
0.469384 1.27582 0.384236
0.401665 0.998686 0.0875221
0.497655 1.11885 0.374962
0.579678 1.03829 0.203171
0.249769 0.954948 0.116089
0.508787 1.31419 0.290806
0.458164 0.978633 0.503052
0.371226 1.18242 0.131771
0.249423 1.28632 0.146517
0.107808 1.16751 0.357195
0.312022 1.00353 0.0419086
0.413007 1.215 0.535954
0.511243 1.31439 0.29333
0.493458 1.0831 0.164937
0.238064 0.944479 0.159695
0.100335 1.08148 0.344672
0.27272 1.06751 0.0596582
0.451358 1.01192 0.507535
0.245108 0.952018 0.131257
0.415111 1.20414 0.535299
0.183891 1.25455 0.146407
0.531271 1.08164 0.31468
0.378802 1.26138 0.3215
0.470564 0.92676 0.492456
0.240722 1.16638 0.445692
0.190863 1.2589 0.13477
0.308907 1.23634 0.329821
0.433072 1.20501 0.515731
0.439413 1.05395 0.517188
0.306246 1.22372 0.124444
0.386974 1.17139 0.134529
0.337141 1.03444 0.0501568
0.180049 1.25212 0.157497
0.4537 1.28475 0.310868
0.561268 1.1117 0.223941
0.425393 1.21937 0.536143
0.448412 1.12279 0.150593
0.512722 0.968687 0.349152
0.312918 1.003 0.0430249
0.467735 1.27462 0.388152
0.136254 1.14602 0.392792
0.314209 1.00415 0.0439066
0.170131 0.912905 0.303995
0.547049 1.05067 0.187513
0.126944 1.17556 0.353796
0.253866 1.1379 0.0755184
0.461464 1.27032 0.403204
0.382481 1.08388 0.0667906
0.193331 1.26124 0.13102
0.259533 0.96482 0.0874488
0.141958 1.14714 0.396456
0.271005 1.24434 0.124267
0.0861337 1.1453 0.35869
0.260184 0.965352 0.0849047
0.561116 1.0438 0.193437
0.263462 1.21921 0.335369
0.149008 0.905695 0.348382
0.5191 1.26311 0.326981
0.412524 1.21652 0.536203
0.222339 0.932205 0.197808
0.396364 1.22304 0.525931
0.482457 1.13651 0.404422
0.502961 1.24822 0.220625
0.289845 1.00281 0.0453311
0.198228 0.936499 0.25696
0.101839 1.13945 0.362376
0.0991515 1.08526 0.344871
0.500085 1.03112 0.442359
0.332062 1.02793 0.0476927
0.286698 1.0202 0.0477656
0.238787 1.19616 0.0934424
0.553895 1.04724 0.190634
0.112842 1.16996 0.355357
0.182962 0.924352 0.286201
0.334944 1.24582 0.326013
0.505672 0.962994 0.367725
0.359497 1.25428 0.323441
0.364269 1.18738 0.130806
0.141737 1.18108 0.350594
0.345166 1.04288 0.0521826
0.592167 1.04612 0.219753
0.288664 1.01023 0.0463155
0.437111 1.06389 0.519779
0.118405 1.14271 0.376457
0.431948 1.20718 0.519131
0.435727 1.20063 0.50915
0.417113 1.18807 0.535593
0.459808 1.28633 0.310097
0.473535 1.14688 0.421308
0.459262 1.16348 0.450145
0.272334 1.17993 0.461116
0.522553 0.976416 0.326119
0.526494 1.28764 0.285708
0.152933 0.89771 0.359527
0.57497 1.05991 0.207408
0.434375 1.20293 0.512521
0.314893 1.00575 0.0445047
0.591695 1.04726 0.220682
0.473298 0.946812 0.443386
0.434243 0.999819 0.114422
0.173336 1.15258 0.412375
0.489456 1.29561 0.305066
0.114725 1.02754 0.342932
0.489755 0.953177 0.40379
0.261442 0.970109 0.07472
0.415918 1.20159 0.535794
0.381032 0.924145 0.454779
0.236284 1.28049 0.136068
0.426746 1.24464 0.481972
0.0916266 1.11139 0.349006
0.278279 1.05143 0.0540931
0.219324 1.26716 0.123447
0.416555 1.2382 0.50697
0.123146 1.1741 0.354628
0.547915 1.18277 0.245277
0.392788 1.16734 0.135702
0.246265 0.952206 0.127569
0.437466 1.25123 0.456985
0.163191 1.18784 0.347774
0.577046 1.03564 0.200274
0.261209 0.96792 0.0785713
0.438934 1.25199 0.454188
0.152802 0.892736 0.347691
0.328066 1.21299 0.485063
0.483415 1.28552 0.357068
0.208932 0.944364 0.228797
0.137081 0.944338 0.345917
0.185903 1.25638 0.142657
0.107734 1.13984 0.365487
0.325228 1.01852 0.0458065
0.241338 1.2596 0.123718
0.564591 1.04252 0.194824
0.479552 1.21245 0.179441
0.10547 1.06683 0.345724
0.224278 1.24379 0.111474
0.111829 1.04197 0.345046
0.153224 0.889708 0.346888
0.117444 1.01487 0.341803
0.283998 1.03724 0.0503506
0.103754 1.16583 0.36076
0.210878 1.20232 0.342263
0.214833 1.28027 0.124425
0.488957 1.22569 0.194974
0.398417 1.1632 0.136829
0.423436 1.14267 0.143615
0.209827 0.948299 0.224566
0.144473 0.921381 0.346697
0.322768 1.01645 0.0455658
0.288335 0.910972 0.415704
0.514669 1.06802 0.173086
0.447983 1.25968 0.43097
0.511414 1.31504 0.294057
0.138319 0.941074 0.345998
0.470545 0.925977 0.490333
0.199151 0.902026 0.381118
0.518597 1.06523 0.174792
0.514307 1.22527 0.347568
0.195414 1.26453 0.126897
0.409047 1.22424 0.532853
0.373754 1.07422 0.0625173
0.530397 0.98323 0.308374
0.235586 0.945285 0.168339
0.547051 1.06859 0.288959
0.471203 0.926597 0.49253
0.49678 0.956237 0.390735
0.262032 1.10577 0.0685798
0.266088 0.907971 0.406681
0.476234 0.947827 0.435333
0.180831 0.922286 0.289182
0.475889 1.29141 0.306423
0.15311 0.890917 0.347304
0.164718 0.907608 0.31446
0.448912 1.02075 0.509094
0.314763 1.20732 0.480001
0.412038 1.2179 0.53651
0.134278 1.17842 0.352131
0.22461 1.20646 0.340574
0.161543 0.901451 0.321293
0.323641 1.21493 0.125765
0.4237 0.998209 0.104501
0.334466 0.991637 0.0477595
0.470515 0.945307 0.450933
0.418671 1.2394 0.501941
0.562786 1.00636 0.250559
0.520177 0.974311 0.332178
0.344079 1.24887 0.324434
0.287312 0.967372 0.0645104
0.18893 1.15371 0.420468
0.34425 1.20345 0.128448
0.471419 0.92715 0.492794
0.500047 1.24354 0.21568
0.536431 1.25124 0.271549
0.140356 0.93394 0.345865
0.175959 0.917969 0.29583
0.267907 1.22074 0.334329
0.254324 1.21606 0.337056
0.116283 1.17137 0.355335
0.417167 1.23864 0.505194
0.119847 1.0035 0.340018
0.268557 1.08465 0.0642017
0.116118 1.13922 0.371551
0.533976 1.07929 0.310158
0.312565 1.29154 0.181965
0.543996 0.993355 0.282494
0.523182 1.30164 0.295733
0.211133 0.948881 0.220034
0.1975 1.26673 0.124327
0.411099 1.23446 0.521453
0.303321 1.23419 0.330344
0.309081 0.913176 0.424813
0.130571 1.17702 0.352877
0.124243 1.18913 0.267523
0.0896955 1.14106 0.356739
0.483695 0.955458 0.489011
0.486068 1.22148 0.189837
0.509566 1.10503 0.353068
0.404668 1.22463 0.530666
0.240856 1.18976 0.0915801
0.352493 1.21939 0.496064
0.330121 1.24416 0.326908
0.375528 1.17951 0.132554
0.372702 0.921857 0.450925
0.166148 0.908675 0.311484
0.190672 0.900221 0.377023
0.515367 1.27825 0.250982
0.156483 0.896698 0.33163
0.241456 1.28426 0.141376
0.150712 0.900645 0.348007
0.463613 0.937756 0.474462
0.287309 1.22802 0.330581
0.1855 0.926297 0.282437
0.282117 1.22596 0.331057
0.11804 1.13905 0.373084
0.120136 1.13895 0.374685
0.146619 0.913113 0.348193
0.284075 0.965723 0.0641013
0.417786 1.239 0.503618
0.433408 1.24832 0.466985
0.425854 1.2181 0.534462
0.463379 0.937134 0.477791
0.511109 1.3139 0.292728
0.178398 0.920067 0.292542
0.373936 1.2595 0.322741
0.154611 1.18521 0.348726
0.494507 0.955124 0.395381
0.104433 1.16339 0.313074
0.485414 1.13291 0.398672
0.122005 1.14309 0.379457
0.51049 1.31421 0.291978
0.517002 1.28242 0.254471
0.287684 1.01511 0.0470276
0.277823 0.909201 0.411206
0.249535 1.21444 0.337836
0.437097 1.19795 0.505276
0.567603 1.01025 0.242922
0.5854 1.05348 0.232933
0.155126 0.893564 0.334118
0.563778 1.10317 0.221776
0.286794 1.03046 0.0496812
0.145764 1.18246 0.34974
0.541796 1.07218 0.296824
0.506257 1.2533 0.225529
0.172667 0.915319 0.300362
0.132459 0.959525 0.344189
0.566418 1.06053 0.260783
0.261331 0.969197 0.0765662
0.34666 1.29657 0.199833
0.179928 1.19267 0.343742
0.4283 1.13866 0.145002
