ply
format ascii 1.0
element vertex 523
property float x
property float y
property float z
end_header
0.459259 0.919841 -0.0193006
0.460757 0.916069 -0.0201179
0.460676 0.914824 -0.0207828
0.460534 0.916865 -0.0195944
0.461561 0.925559 -0.0150168
0.451185 0.871399 -0.0265157
0.450167 0.869426 -0.0264365
0.458972 0.924812 -0.0166493
0.448861 0.866932 -0.0261644
0.437695 0.846399 -0.019326
0.434649 0.840728 -0.0163318
0.412169 0.80537 0.00841945
0.413404 0.806886 0.00739779
0.405014 0.796886 0.012537
0.402783 0.792955 0.0150512
0.433607 0.837488 -0.0137361
0.429861 0.828667 -0.00622417
0.526664 0.916875 0.0591386
0.460907 0.910102 -0.0219296
0.525574 0.855359 0.0777935
0.522428 0.852612 0.0798819
0.527148 0.868049 0.0770322
0.526621 0.85891 0.0760047
0.414002 0.732348 0.0896628
0.416785 0.729319 0.0888876
0.419842 0.726545 0.0882875
0.411027 0.73524 0.0898188
0.423471 0.723986 0.087999
0.435636 0.842556 -0.01736
0.403742 0.807725 0.185249
0.40764 0.799992 0.0115583
0.459753 0.730727 0.0765173
0.427373 0.721889 0.0877316
0.465517 0.738626 0.0755402
0.421557 0.918062 0.244055
0.422682 0.920805 0.243666
0.425005 0.924936 0.241837
0.442341 0.716042 0.0837796
0.436344 0.717297 0.0865262
0.417316 0.9053 0.246334
0.405307 0.881103 0.242162
0.517465 0.927651 0.060652
0.498057 0.92976 0.156985
0.481793 0.931438 0.178892
0.486938 0.930951 0.172166
0.461189 0.908577 -0.0222041
0.42371 0.92878 0.207866
0.423559 0.928385 0.205665
0.425509 0.929305 0.239626
0.427039 0.935156 0.235554
0.435584 0.940785 0.211788
0.433586 0.941232 0.212401
0.428801 0.951676 0.2167
0.495195 0.930039 0.160776
0.526768 0.862515 0.0763103
0.431553 0.941608 0.212242
0.42548 0.943637 0.212781
0.427092 0.942728 0.211488
0.41938 0.929163 0.204425
0.426202 0.938284 0.229122
0.425926 0.937529 0.229814
0.500488 0.929684 0.153749
0.378538 0.9417 0.202956
0.469203 1.05598 0.0574663
0.526588 0.911826 0.066654
0.524824 0.901501 0.0675281
0.524581 0.903389 0.0680828
0.436916 1.05091 0.170057
0.461808 1.06198 0.0606493
0.526045 0.915423 0.0694982
0.46089 0.902067 -0.0242061
0.458247 0.893196 -0.025819
0.459497 0.918673 -0.019396
0.429084 1.08358 0.0815813
0.431542 1.0733 0.134753
0.405065 1.07358 0.047395
0.426309 0.939462 0.226725
0.40589 1.07467 0.0511341
0.412396 1.07952 0.0679122
0.461326 0.926774 -0.0153521
0.402892 1.08771 0.101994
0.460236 0.90019 -0.0248512
0.382908 0.766368 0.137182
0.413669 1.08027 0.0710698
0.401538 1.07041 0.0405256
0.426647 1.08418 0.082192
0.380336 0.739369 0.0874571
0.399828 1.06823 0.0376475
0.429466 0.9422 0.212179
0.396688 1.05985 0.0245596
0.397561 1.06211 0.0282847
0.433986 0.839047 -0.015156
0.461681 0.924644 -0.0146697
0.433135 0.835947 -0.0123327
0.44131 0.854133 -0.0232789
0.423853 1.08486 0.0835361
0.434312 1.06327 0.15321
0.28796 1.00055 0.12116
0.414006 1.08073 0.074859
0.39972 1.08683 0.102814
0.472004 1.05273 0.0561148
0.398958 1.06625 0.0349847
0.514044 0.841225 0.0805774
0.526416 0.876246 0.0746332
0.520026 0.849773 0.0804208
0.386205 0.753809 0.0849169
0.316651 0.936221 0.0460349
0.527651 0.873115 0.0773634
0.438258 0.930825 -0.0319177
0.418218 0.929783 0.205962
0.434271 0.93168 -0.0326125
0.333316 1.06563 0.112701
0.525599 0.893108 0.0698521
0.425327 1.07812 0.119731
0.315151 0.936126 0.0498108
0.396901 0.793347 0.169816
0.373077 1.08114 0.107023
0.378378 0.741332 0.0599875
0.451561 1.07001 0.065918
0.525819 0.897317 0.0716835
0.483276 0.768295 0.0750827
0.454249 1.06753 0.0641182
0.432596 1.06736 0.146293
0.367638 1.07953 0.107358
0.4079 0.884797 0.244248
0.426514 1.07592 0.127789
0.441039 1.07836 0.0751195
0.414538 1.08066 0.0841229
0.49846 0.81401 0.0791009
0.414067 1.08076 0.0793089
0.407237 1.07728 0.0619437
0.297511 0.937798 0.114986
0.297139 0.934342 0.115621
0.305903 1.04483 0.117647
0.432209 1.07148 0.13803
0.432297 1.06948 0.142062
0.431581 1.08201 0.0801514
0.45781 1.06481 0.0624017
0.447005 1.07442 0.070554
0.328919 1.06319 0.113675
0.436337 1.05364 0.166766
0.477645 0.923086 -0.00719818
0.425197 1.07912 0.115764
0.52655 0.880786 0.0721697
0.35758 0.941512 0.195327
0.426967 0.934311 0.236566
0.354143 0.94083 0.193166
0.36376 0.942143 0.199203
0.443843 0.858291 -0.0245526
0.399926 0.854876 0.227889
0.372432 0.941789 0.201715
0.420145 1.08155 0.100798
0.381596 0.756074 0.12448
0.360714 0.941973 0.19734
0.380032 0.747014 0.110176
0.395754 1.08565 0.103724
0.526976 0.875077 0.0763658
0.406358 1.07634 0.0584828
0.314129 1.05353 0.115858
0.318037 1.0565 0.115442
0.35629 1.07581 0.108494
0.406851 0.883338 0.243524
0.409133 0.887619 0.2451
0.378016 0.747215 0.0425728
0.408444 0.885992 0.244687
0.338519 0.752314 0.0855061
0.302779 1.04087 0.118834
0.40974 1.07841 0.0649479
0.511205 0.836936 0.0803904
0.479124 0.931676 0.181682
0.436301 1.05629 0.163161
0.426073 0.821994 -0.00244933
0.351647 1.07405 0.10953
0.484367 0.931202 0.175714
0.422949 0.817192 0.000824317
0.40477 0.817373 0.197114
0.524873 0.90705 0.0700648
0.435033 1.08066 0.0779013
0.525309 0.919369 0.0698943
0.403072 0.831855 0.208955
0.40342 0.833066 0.210422
0.403056 0.806468 0.182709
0.403174 0.829958 0.207446
0.375409 0.741496 0.0566304
0.390871 0.9377 -0.0171126
0.393726 1.05473 0.0184931
0.35364 0.748192 0.0855482
0.380407 0.752721 0.0840368
0.403189 0.824792 0.203415
0.459248 0.897934 -0.0254951
0.403047 0.821232 0.199537
0.406282 0.798457 0.0119452
0.525214 0.920166 0.0706182
0.40422 0.836832 0.214827
0.403814 0.838493 0.216186
0.525312 0.920588 0.0704229
0.39962 0.866864 0.234249
0.37866 0.750884 0.116667
0.402492 0.822833 0.200529
0.29888 1.0359 0.11964
0.504304 0.929384 0.147311
0.525728 0.91053 0.0709155
0.449364 1.0722 0.0679911
0.404241 0.835407 0.213342
0.396776 0.792206 0.168705
0.402526 0.845036 0.220349
0.418686 0.907722 0.246372
0.420328 1.08109 0.104662
0.309741 0.936836 0.162604
0.316973 0.93714 0.170353
0.430947 0.720115 0.0875502
0.433917 0.718526 0.0873449
0.381281 0.764996 0.134998
0.403601 0.81093 0.188663
0.506991 0.83033 0.0794797
0.309449 0.935903 0.0647097
0.350574 0.940023 0.19126
0.381061 0.739138 0.0862659
0.403772 0.819177 0.198304
0.337479 1.06748 0.112098
0.377671 0.739468 0.0875668
0.460223 0.925782 -0.0158708
0.385476 0.773134 0.147535
0.375611 0.743534 0.0480477
0.377286 0.737528 0.0837521
0.323355 0.758705 0.0850118
0.290379 0.809367 0.0942177
0.379472 0.753969 0.12126
0.378883 0.738066 0.080242
0.402774 0.824035 0.202358
0.370633 0.748639 0.0857948
0.379223 0.739432 0.0877424
0.378431 0.739467 0.0875301
0.459855 0.922052 -0.0182477
0.502522 0.929568 0.150549
0.379769 0.741114 0.063376
0.378899 0.751355 0.0854083
0.361757 1.07771 0.107758
0.377972 0.747962 0.0419735
0.385628 0.775597 0.150356
0.439597 1.04236 0.179434
0.381428 0.73804 0.0858814
0.393508 0.787986 0.163723
0.410866 0.803561 0.00976925
0.343207 0.751003 0.0859566
0.4015 0.847962 0.223614
0.378 0.737876 0.0842299
0.485591 0.773611 0.0758708
0.494541 0.798378 0.075607
0.40184 0.846664 0.22232
0.383384 0.761241 0.0293869
0.390028 0.77315 0.0236717
0.390742 0.783272 0.159212
0.45192 0.872949 -0.0263856
0.382445 0.739012 0.0888344
0.378125 0.748804 0.041235
0.453333 0.877939 -0.0268746
0.382631 0.738197 0.0870602
0.380972 0.738135 0.0852921
0.429198 0.951744 0.214546
0.377984 0.746436 0.0433441
0.399666 0.865081 0.233371
0.374563 0.742014 0.0534154
0.38048 0.754022 0.0354702
0.393025 0.750765 0.0933112
0.438307 1.03526 0.186097
0.505966 0.92918 0.143994
0.374987 0.74266 0.0503543
0.374762 0.742218 0.0522644
0.460589 0.911631 -0.0217359
0.376993 0.741362 0.0584295
0.433229 1.06521 0.149935
0.42538 1.07715 0.123903
0.503726 0.824423 0.0795207
0.311863 0.771041 0.086826
0.379437 0.741263 0.0616286
0.392834 0.751595 0.0874044
0.461638 0.926422 -0.0151807
0.407904 0.737788 0.0893637
0.42701 0.939243 0.228806
0.363108 0.747228 0.0840677
0.377553 0.73802 0.0846417
0.430995 0.831358 -0.00856859
0.385395 0.770787 0.144379
0.439054 0.716313 0.0852507
0.380168 0.754688 0.122115
0.435656 1.06116 0.156406
0.38152 0.739351 0.0862413
0.471165 0.924273 -0.0138086
0.430503 0.830107 -0.00740565
0.403433 0.826069 0.204646
0.452809 0.875947 -0.0264541
0.35056 0.748982 0.0862997
0.377913 1.08225 0.106722
0.378946 0.746253 0.107141
0.307809 0.93685 0.158969
0.427017 0.823766 -0.00346093
0.374696 0.741822 0.0547726
0.388517 0.771091 0.024369
0.439431 1.04542 0.176331
0.474279 0.923656 -0.0104439
0.377833 0.737702 0.0824843
0.38774 0.779407 0.154835
0.475065 1.0493 0.0546553
0.460949 0.905413 -0.0233986
0.403561 0.809066 0.186829
0.386746 0.778354 0.153531
0.461066 0.906992 -0.0228226
0.359338 0.747208 0.0841022
0.438368 1.03146 0.189265
0.458528 0.895472 -0.0257682
0.452431 0.87441 -0.026343
0.420302 1.08153 0.0973728
0.392199 0.785675 0.161497
0.382231 0.738435 0.0869239
0.4932 0.793619 0.0758213
0.525841 0.889476 0.0685375
0.382891 0.73891 0.0893385
0.424084 0.818647 -0.000157833
0.444132 1.07628 0.0730031
0.526244 0.878133 0.0730866
0.403371 1.07211 0.0437722
0.526442 0.887514 0.068777
0.376424 0.744052 0.0465062
0.404265 0.8128 0.190716
0.460044 0.917654 -0.0194185
0.308988 1.04822 0.116662
0.478227 1.04578 0.0530497
0.421877 0.815897 0.00167497
0.378613 0.740034 0.0694957
0.378931 0.752737 0.119561
0.399711 0.862627 0.232486
0.438872 1.03908 0.182747
0.391248 0.775008 0.0232107
0.447575 0.86445 -0.025791
0.401116 0.871709 0.237508
0.404783 0.814062 0.192499
0.402523 0.823375 0.20137
0.399988 0.857273 0.229737
0.399927 0.855927 0.228778
0.386801 0.768813 0.0254784
0.393152 0.778972 0.0214637
0.445822 0.929201 -0.0291166
0.436757 0.844513 -0.0183346
0.425111 0.820193 -0.00123005
0.400864 0.804123 0.179485
0.390914 0.754506 0.0863572
0.398751 0.79956 0.175429
0.392157 0.776928 0.0224687
0.457068 0.887658 -0.0263655
0.398855 0.744556 0.0877034
0.402213 0.805477 0.181213
0.521693 0.917874 0.0620738
0.431398 0.952957 0.212618
0.380809 0.738266 0.0854907
0.488854 0.783407 0.0775446
0.526164 0.913252 0.0681117
0.47798 0.757749 0.0743285
0.400585 0.851492 0.226061
0.333376 0.754048 0.0849476
0.455827 0.724504 0.0781847
0.427987 0.825345 -0.00427753
0.418081 0.811643 0.00435755
0.428974 0.826947 -0.00505723
0.403779 0.807068 0.184046
0.398262 1.0643 0.0320082
0.402255 0.874473 0.238928
0.525371 0.920387 0.0701108
0.399961 0.868374 0.235276
0.432522 0.834361 -0.0109599
0.39299 1.05225 0.0160665
0.389259 0.751018 0.0918267
0.496741 0.808631 0.077671
0.460947 0.903715 -0.0237883
0.316763 0.764692 0.0865
0.462294 0.925171 -0.0142545
0.492372 0.930342 0.164761
0.475343 0.752761 0.0745774
0.387581 1.08392 0.10554
0.525004 0.916762 0.0610775
0.38266 1.08308 0.106146
0.401748 0.747261 0.0946901
0.398031 0.796907 0.173219
0.381709 0.738999 0.0872198
0.476713 0.932079 0.183996
0.400081 0.748827 0.0948464
0.31963 0.761779 0.0858541
0.404298 0.740332 0.0886473
0.420283 0.911931 0.245268
0.379914 0.746803 0.109011
0.418089 1.08079 0.0914374
0.42181 1.08041 0.10838
0.527021 0.883788 0.0710574
0.402788 0.844309 0.21964
0.41977 1.08126 0.0942476
0.409282 0.801757 0.0108685
0.379274 0.74042 0.0677811
0.373672 0.749753 0.0866577
0.380988 0.755707 0.03347
0.445029 0.860248 -0.0249853
0.42571 0.927464 0.240486
0.389614 0.75413 0.0855679
0.381352 0.753068 0.0839481
0.419595 0.909466 0.24616
0.489602 0.930668 0.168603
0.439287 1.02427 0.194908
0.438676 1.02774 0.192272
0.400502 0.869799 0.236402
0.431722 0.832762 -0.00971539
0.437899 1.07951 0.0765054
0.4605 0.913335 -0.0214082
0.526404 0.900859 0.0720357
0.39548 0.782782 0.0197179
0.391873 1.08471 0.104685
0.416421 0.809842 0.00562185
0.376606 0.75063 0.0862292
0.29675 0.934507 0.116261
0.403049 0.842827 0.218765
0.508919 0.833449 0.0797655
0.378733 0.749975 0.0400619
0.403441 0.840538 0.217549
0.446225 0.862275 -0.0254058
0.391126 0.754368 0.0859175
0.381407 0.754888 0.12279
0.453141 0.721673 0.079212
0.458043 0.891183 -0.0257896
0.462165 0.925105 -0.0141868
0.356311 0.747556 0.084648
0.458834 0.924386 -0.0169159
0.436284 1.05882 0.159585
0.397307 0.794899 0.171305
0.38341 0.760003 0.0302279
0.394803 0.78991 0.165731
0.314214 0.767698 0.0867321
0.381958 0.757306 0.0321267
0.454191 0.880368 -0.0272167
0.403426 0.827899 0.206026
0.459428 0.920934 -0.0188318
0.405278 0.815268 0.194325
0.311908 0.936883 0.16559
0.465806 1.05907 0.0590182
0.381263 0.758007 0.126839
0.399802 0.788604 0.0176234
0.4202 0.913083 0.244734
0.462111 0.734416 0.0760275
0.382916 0.758685 0.0312043
0.402904 0.744911 0.0939819
0.438187 1.04814 0.173049
0.487165 0.778554 0.0770366
0.389062 0.781177 0.156775
0.312292 0.935999 0.0569043
0.380313 0.752483 0.0375022
0.40389 0.795063 0.0136151
0.383482 0.762501 0.028892
0.396021 0.791362 0.167467
0.38168 0.738149 0.0864812
0.424302 0.923981 0.242409
0.385012 0.769048 0.141604
0.328238 0.756129 0.0846609
0.457682 0.889353 -0.0259828
0.311532 1.05104 0.116094
0.457978 0.727665 0.0772762
0.399595 0.802096 0.177537
0.37956 0.740914 0.065002
0.401418 0.7907 0.0165815
0.379404 0.740645 0.0664519
0.525145 0.91774 0.0705853
0.379127 0.747675 0.111517
0.505558 0.827979 0.0793799
0.401473 0.742553 0.088124
0.383482 0.753407 0.0842456
0.38064 0.763011 0.132543
0.310974 0.935967 0.0606254
0.323514 1.06002 0.114598
0.424439 1.07973 0.112074
0.391058 0.937945 -0.0144137
0.395376 1.05747 0.0212279
0.406185 1.07553 0.0548016
0.414787 0.808206 0.00664915
0.392327 0.752095 0.0873283
0.377663 0.739824 0.0951226
0.394321 0.780864 0.0206071
0.398268 0.786581 0.018412
0.313664 0.936034 0.0533597
0.472484 0.747787 0.0747973
0.346899 1.07183 0.110869
0.440285 0.851859 -0.0221885
0.396964 0.74999 0.0941786
0.526582 0.856743 0.0766184
0.367241 0.74769 0.0847747
0.377484 0.74552 0.0445077
0.439396 0.849859 -0.0211118
0.524871 0.919098 0.0708156
0.524224 0.854244 0.0790262
0.49108 0.788539 0.0766348
0.377712 0.738316 0.092577
0.378561 0.748978 0.113655
0.38392 0.764136 0.0282265
0.377071 0.739535 0.0715894
0.380862 0.760523 0.129792
0.516982 0.845633 0.0806143
0.438521 0.848098 -0.0201932
0.379755 0.751124 0.0390914
0.342045 1.0695 0.111724
0.384147 0.767619 0.139243
0.442546 0.856328 -0.0240632
0.385926 0.777449 0.152348
0.347298 0.749936 0.0862445
0.390354 0.754439 0.086487
0.501098 0.819673 0.07951
0.297816 0.934379 0.115629
0.405295 0.816286 0.195872
0.429255 1.0747 0.131434
0.480536 0.762985 0.0746659
0.385133 0.766308 0.0269374
0.381147 0.739417 0.0868375
0.469139 0.743131 0.0750314
0.420826 0.81469 0.0023853
0.495577 0.803344 0.0761555
0.308534 0.774366 0.0869226
0.52514 0.918195 0.0701742
0.415953 1.08065 0.0880364
0.375555 0.941784 0.20209
