ply
format ascii 1.0
element vertex 1518
property float x
property float y
property float z
end_header
0.0712976 -0.0193123 -0.083791
0.0709757 -0.0201208 -0.0850547
0.0662276 -0.0269917 -0.0940647
0.0716068 -0.0163153 -0.0807365
0.020056 0.0572835 -0.0774936
0.0585941 -0.0108635 -0.119183
0.0314705 -0.0127366 -0.140444
0.0309536 -0.0130229 -0.140924
0.0717119 -0.0160837 -0.0791649
0.0121293 -0.0117483 -0.130685
0.0476263 0.0487655 -0.0272498
0.0456913 0.0537631 -0.043692
0.030146 -0.0130064 -0.141448
0.0305042 -0.0130266 -0.14123
0.0507516 0.0575476 -0.0230254
0.0463457 0.0532332 -0.0398832
-0.0113215 -0.0123505 -0.124492
0.0597333 0.0655005 -0.0289044
0.0534377 0.0603965 -0.0110528
0.0555843 0.0582529 -0.03015
0.0555576 0.0609956 -0.026139
0.0722837 0.0227215 -0.0276267
0.0566765 0.0598546 -0.0316876
0.0722039 0.0209661 -0.029813
0.0717949 0.011401 -0.0417852
0.0721346 -0.0120682 -0.0703001
0.0610574 -0.0283654 -0.101149
0.111539 -0.0183239 -0.0358798
0.112379 -0.0189318 -0.0306171
0.0985882 0.0140742 0.0554432
0.101529 0.00224382 0.0669663
0.0719855 0.0245951 -0.0254997
0.102461 -0.0150213 0.0441508
0.104004 -0.0150632 0.040588
0.111086 -0.0163559 0.0162558
0.108666 -0.0192769 -0.00755146
0.0928709 0.0202566 0.0548764
0.0452072 0.0550602 -0.0492502
0.0916079 0.0206701 0.0549837
0.0702562 -0.000763136 0.133572
0.0976422 0.0146091 0.0549306
0.0972794 0.0152954 0.0567263
0.0303808 -0.00135546 0.139856
0.0938746 -0.0102777 0.064879
0.0519625 0.00285418 0.140001
0.0468563 0.0241925 0.0311328
0.0575506 0.00260371 0.139193
0.0373478 0.0329916 0.0529193
0.0196242 0.070522 0.0998143
-0.0082578 0.0610716 0.0848234
0.0397515 0.0536393 -0.0220364
0.0437677 0.0627536 0.000178865
0.0394354 0.054143 -0.022723
0.0485108 0.0613432 -0.00455633
0.0450148 0.0623045 -0.00124554
0.0509468 0.0610521 -0.00705595
0.0548982 0.0580702 -0.0308059
0.052305 0.0231433 0.0222398
0.0491583 0.0547699 -0.0300884
0.105565 -0.0152213 0.0374195
0.0292062 0.0478402 0.0504928
0.0384335 0.0552157 -0.0242836
0.0422157 0.0629097 0.0016358
0.051954 0.052091 -0.0326249
0.0521083 0.0525408 -0.0331939
0.0656921 0.0269383 -0.00884172
0.0523101 0.0589041 -0.0238168
0.0551796 0.0589625 -0.0328172
0.0560495 0.0598283 -0.0324872
0.0547425 0.058644 -0.0322216
0.0550828 0.0589947 -0.0315123
0.0449034 0.0566217 -0.0574719
0.0186006 0.0760853 0.00868388
0.0658854 0.000546281 0.13653
0.0163725 0.0881462 0.110274
0.11073 -0.0177637 -0.000313284
0.0554397 0.00296609 0.139782
0.0537536 0.0031664 0.140056
0.0546481 0.0997414 -0.0361663
0.0738542 0.129319 -0.025193
0.0739001 0.128844 -0.0254301
0.075484 0.13011 -0.0258212
0.0488968 0.0544162 -0.0301624
0.0754828 0.129933 -0.0258353
0.0753814 0.131164 -0.0251352
0.0553448 0.101773 -0.0348293
0.0740006 0.129039 -0.0254335
0.0738487 0.128967 -0.0253107
0.0737576 0.129467 -0.0252122
0.0641753 0.17297 -0.0330627
0.0736006 0.129989 -0.0249612
0.0736998 0.13199 -0.0232006
0.0735368 0.130054 -0.0247608
0.0644639 0.172047 -0.032884
0.022871 0.0484871 0.0505089
0.0658525 0.13908 -0.0117547
0.069021 0.136076 -0.0161169
0.0406882 0.0636088 0.00350126
0.0299189 0.15057 0.0131479
0.0673808 0.16333 -0.0313686
0.0494651 0.0239501 0.026769
0.0606494 0.141692 -0.00616692
0.0553036 0.0569962 -0.0262397
0.0603969 0.192796 -0.0369088
0.0630553 0.17817 -0.0341855
0.0451794 0.203486 -0.0415803
0.0441836 0.204409 -0.0420663
0.0324161 0.15022 0.0127672
0.0701347 0.149036 -0.0340446
0.0415187 0.164382 -0.112851
0.0632697 0.176988 -0.0339623
0.0716161 0.0261688 -0.0239008
0.0476203 0.103496 -0.13844
0.0476608 0.103048 -0.126583
0.0529087 0.00297406 0.140024
0.0467242 0.10439 -0.128751
0.0462798 0.103478 -0.132865
0.046305 0.103651 -0.131976
0.0480853 0.103364 -0.145396
0.0185052 0.115872 -0.131716
0.0648874 0.0245758 -0.00543347
0.072029 0.0177049 -0.0346127
0.0719268 0.0154882 -0.0369374
0.069542 0.12588 -0.0344085
0.0548929 0.0999007 -0.0349733
0.111175 -0.0200726 -0.0254919
0.107893 -0.0182194 -0.042051
0.0454469 0.0545676 -0.0464491
0.067903 0.0833753 -0.0299783
0.0687959 0.0878333 -0.0312901
0.0696012 0.0903005 -0.0309557
0.0689603 0.0851632 -0.0303061
0.0648602 0.101326 -0.0678937
0.0432334 0.101289 -0.116586
0.0461211 0.0622 -0.00193211
0.0539575 0.0597185 -0.0250085
0.0344283 0.118493 -0.123026
0.0534798 -0.0094406 -0.125207
0.0572104 -0.0236426 -0.109814
0.0202045 0.115656 -0.134704
0.0224679 0.114687 -0.141043
0.0459931 0.102058 -0.11143
0.0497322 -0.00907828 -0.128961
0.0403354 0.103242 -0.160987
0.0318462 0.214115 -0.0546744
0.02228 0.10716 -0.167455
0.0292437 0.102824 -0.171681
0.0343244 0.101932 -0.166379
0.0257021 0.127632 -0.128341
0.046855 0.102043 -0.148698
0.0486546 0.101881 -0.106475
0.0232543 0.108695 -0.159259
0.0356319 0.102702 -0.165968
0.0904755 0.0225342 0.0544686
0.0219013 0.115168 -0.13895
0.0467929 0.10438 -0.128393
0.0482969 0.103713 -0.144128
0.0395445 0.179205 -0.10083
0.049314 0.146015 0.00372053
-0.037428 0.120609 -0.128078
0.0669667 -0.0108021 -0.10307
-0.0371262 0.121215 -0.128019
-0.0386975 0.120497 -0.127484
-0.0152383 0.133097 -0.146155
0.0321212 0.126152 -0.128217
0.039918 0.102704 -0.119668
0.0640545 0.173649 -0.0331867
0.0535793 0.182428 -0.0340631
0.00514838 0.138283 -0.152689
-0.00228133 0.112401 -0.18732
-0.00443917 0.112235 -0.186257
-0.0360123 0.131659 -0.155351
-0.0336942 0.133431 -0.156102
-0.00729387 0.112917 -0.186248
0.0391082 0.148852 -0.121816
-0.0109497 0.119906 -0.183349
0.069814 0.0322777 0.0521902
-0.00559646 0.112815 -0.186399
-0.0420874 0.107139 -0.16403
-0.0311322 0.110982 -0.176646
0.0404064 0.102942 -0.119775
-0.0398383 0.108832 -0.170028
0.047807 0.114752 -0.144216
-0.0405408 0.114612 -0.116184
-0.0377333 0.123166 -0.158264
-0.0418723 0.11345 -0.114892
-0.0457504 0.119952 -0.125524
-0.0351148 0.119021 -0.165912
-0.0433024 0.105243 -0.158755
-0.0222002 0.111756 -0.183127
-0.0124274 0.120951 -0.175679
-0.0346839 0.110839 -0.174801
0.0471451 0.0616273 -0.00304865
-0.0532079 0.104433 -0.142853
0.110915 -0.0174832 -0.00235208
-0.052977 0.102487 -0.138612
-0.0531567 0.103919 -0.14188
-0.0412209 0.125033 -0.150463
-0.0430328 0.125479 -0.141007
-0.0429252 0.125267 -0.143578
-0.0530199 0.103158 -0.140178
0.11142 -0.0191079 -0.0335089
-0.0329896 0.121404 -0.122077
-0.0544244 0.171623 -0.100747
-0.0446101 0.104127 -0.154944
-0.0452687 0.103791 -0.153485
-0.0464126 0.103609 -0.151525
-0.0314885 0.122871 -0.123211
-0.0243987 0.128755 -0.129276
-0.0314873 0.123442 -0.123706
-0.0461674 0.192987 -0.07203
-0.0403651 0.124895 -0.151423
-0.0428767 0.208952 -0.0502301
-0.0310381 0.203678 -0.0376954
0.0623211 0.187066 -0.0364334
0.0625687 0.185854 -0.0363403
-0.0321609 0.110839 -0.175997
0.0080035 0.218223 -0.0407681
1.77358e-05 0.218311 -0.0413157
0.031486 0.213133 -0.0432211
0.00255536 0.217367 -0.0376158
0.0425562 0.147223 0.00858466
0.0423312 0.206069 -0.0431512
0.0333489 0.212271 -0.0438442
0.00395373 0.199508 -0.0372047
0.0673926 0.0293467 -0.0136434
-0.0423937 0.20572 -0.0542982
0.0406283 0.103599 -0.119309
-0.0511544 0.187281 -0.0319737
-0.0456558 0.202176 -0.0353589
-0.0284879 0.208696 -0.0356024
-0.0675388 0.130671 -0.0953252
-0.0520491 0.196653 -0.0341842
-0.0522596 0.195486 -0.0339698
0.0703311 0.144094 -0.0353067
-0.0517682 0.197399 -0.0344457
0.0606032 0.192695 -0.0364836
0.0636903 0.175368 -0.0337947
0.0023916 0.198221 -0.0387199
-0.0511917 0.188477 -0.0316658
-0.0489892 0.156352 0.0170792
0.079909 -0.00429007 0.105203
-0.0531712 0.154035 0.0146604
-0.0569571 0.15312 0.0125267
-0.015718 0.163327 0.0295852
0.0240592 0.0568492 0.0870493
0.0471456 -0.00984048 -0.130667
-0.00292701 0.0665078 0.0897478
0.0569658 -0.0248932 -0.109462
-0.00850791 0.169102 0.0325204
-0.00722843 0.170011 0.0329402
-0.0468784 0.103585 -0.150751
-0.0381224 0.157913 0.0212957
-0.0234234 0.162434 0.0271772
-0.0224028 0.161849 0.0274276
0.00625499 0.209772 0.0101509
0.00196838 0.198105 -0.0389467
0.00143395 0.198101 -0.0394898
0.0788595 -0.0047521 0.106861
0.0251387 0.215622 -0.0416799
-0.0737786 0.135424 -0.0843146
-0.0650553 0.129511 -0.025752
0.00241486 0.218338 -0.0412713
-0.0336677 0.113699 -0.172244
0.00286938 0.216009 -0.0375482
0.0399065 0.173816 -0.105519
-0.0833708 0.147813 -0.0567323
0.0876304 0.028996 0.0507838
-0.0849874 0.149171 -0.0425342
0.0459468 0.0534391 -0.0415328
-0.0856219 0.151521 -0.033287
0.024717 0.151075 0.0135432
-0.06475 0.151362 -0.0287191
0.0476882 0.048947 -0.0270228
-0.0659607 0.066252 -0.0456628
-0.0669444 0.0790729 -0.031335
-0.0718548 0.135047 -0.0306611
0.02939 -0.0136504 -0.141455
-0.0721249 0.132236 -0.0307532
-0.00604262 0.19389 -0.0409673
0.0572035 0.105954 -0.0337317
0.056847 0.105597 -0.0340139
0.0713055 -0.0178462 -0.0825173
-0.0636079 0.0733007 -0.0325283
-0.063551 0.073162 -0.0324641
-0.0469835 -0.00440264 -0.111982
-0.0606233 0.0634062 -0.0538326
-0.0495305 -0.00426669 -0.11084
-0.0625481 0.0684979 -0.0310936
0.0575017 -0.0105396 -0.120864
-0.0253157 0.0649244 -0.00396302
-0.0622494 0.0674864 -0.0305482
0.0288295 0.0580223 -0.0740757
0.00928709 0.0625753 -0.086862
0.0453604 0.0246722 0.0332058
0.0541071 0.0604856 -0.0120633
0.0527391 0.060662 -0.00964524
-0.0243622 0.15726 0.0250176
-0.00353619 0.194638 -0.0411216
0.0751071 0.131101 -0.0249276
0.011208 0.0706753 0.108069
0.00103762 0.0699542 0.0955062
-0.00494986 0.0645741 0.0884965
-0.0130297 0.165529 0.030693
-0.00566411 0.170952 0.0333981
-0.053358 0.178325 -0.0930904
-0.00421099 0.171231 0.0336617
-0.0223341 0.21681 -0.0379475
0.0202682 0.0676827 0.0979981
-0.0478794 0.15628 0.0175359
-0.0463689 0.156139 0.0180099
-0.0234812 0.157491 0.0255121
-0.0997143 0.0193965 0.056693
-0.102161 0.0165308 0.0582481
-0.103702 0.0142667 0.0594498
0.0722414 0.0192083 -0.0322071
-0.0546741 0.153954 0.0140473
-0.0442631 0.156563 0.0187965
-0.0846876 0.0323525 0.0524714
0.0805519 -0.00581637 0.100287
0.0338554 -0.000752844 0.139835
-0.0266727 0.128566 -0.129154
0.0368478 -0.000107194 0.139996
0.0238149 0.0600087 -0.0797047
-0.0939118 -0.00211157 0.0825655
-0.0596158 0.0628645 -0.0554609
-0.0892979 9.77231e-05 0.099348
0.0388666 0.0641159 0.00522612
0.0618477 0.0235534 0.00541575
-0.0629816 -0.00283823 0.129403
0.0624432 0.185084 -0.0363243
-0.0602008 -0.00329249 0.130253
0.0720822 -0.00835478 -0.0623358
-0.0353889 -0.00490662 0.137629
-0.0244123 0.179839 0.0255448
-0.0380349 0.129998 -0.15494
-0.035701 0.0545386 0.0404204
0.0372602 0.142221 -0.124069
-0.0953758 -0.00343209 0.0779927
-0.0662615 0.14939 -0.0291214
-0.0543838 0.0440587 0.0504132
-0.0800502 0.00208852 0.122187
-0.0816779 0.00244499 0.12179
-0.082685 -0.00101853 0.117304
-0.0369161 0.122529 -0.160533
0.0128941 0.0492391 0.0498448
0.0327489 0.0411695 0.0625161
0.0509119 0.0233394 0.0247471
-0.0648784 0.0972628 -0.0607787
-0.0562666 0.0409057 0.0198908
0.0908519 0.0220134 0.0544533
0.0759245 -0.00223319 0.11939
-0.0980535 0.0207028 0.0560037
0.0745875 0.131598 -0.0239908
-0.0635547 0.0730145 -0.0320072
-0.0651382 0.0665107 -0.0375386
-0.0647063 0.0655999 -0.0483394
-0.0598172 0.0647274 -0.0311113
-0.0601019 0.0638836 -0.0305043
-0.0486251 0.188104 -0.0785118
-0.0284924 0.156169 0.0234441
-0.0383095 0.124313 -0.156931
-0.0299341 0.156992 0.0232533
-0.0644514 0.0654052 -0.0362793
-0.0600779 0.0645938 -0.0314605
0.0565929 0.0027516 0.139426
-0.0642399 0.050557 -0.0287813
-0.0427507 0.158108 0.0198469
-0.0251326 0.189945 0.0239998
-0.115309 -0.0152994 0.0281435
-0.0477304 0.118977 -0.146053
-0.11357 -0.0136766 0.0342091
-0.11561 -0.0229723 -0.0103459
-0.0289058 -0.00511708 0.137503
0.0375782 0.0570835 -0.0642943
0.0369817 0.122624 -0.121597
0.0078339 -0.00495137 0.140039
-0.0636865 0.0729205 -0.0318335
0.0211085 0.0571449 -0.0769438
-0.119408 -0.0144902 -0.065208
-0.119907 -0.0177167 -0.066054
-0.118861 -0.0126284 -0.0632156
0.0720063 -0.00951387 -0.0646005
-0.069535 0.131357 -0.0916125
0.0721406 -0.0109669 -0.0679096
-0.118016 -0.0104786 -0.0610828
-0.10876 -0.00805992 -0.0719681
-0.0655389 0.127237 -0.029258
-0.0700903 0.138691 -0.0298679
-0.109454 0.0190883 -0.0600283
-0.0500715 0.0437857 0.0257241
0.0461856 0.104137 -0.130869
-0.0981404 -0.00602216 -0.0781838
-0.0523044 0.105068 -0.145475
0.0999287 0.0144607 0.0569808
-0.115717 0.00519038 -0.0665249
-0.0965426 -0.00586741 -0.0789909
-0.0530154 0.064279 -0.0819766
-0.0595871 0.0917757 -0.0865676
-0.0526777 0.104813 -0.144621
-0.0564556 0.0624387 -0.0639864
0.0688717 0.0301949 -0.0182942
0.0398606 0.000503631 0.139933
-0.107307 -0.0100555 0.0516867
-0.0642879 0.0732388 -0.0314782
-0.0593716 0.0396142 0.0161776
0.0371869 0.130967 -0.126186
-0.108207 -0.00797049 -0.0723547
0.0495684 0.0541685 -0.040804
-0.037264 0.0538796 0.0373181
-0.0530865 0.104827 -0.143874
-0.0474743 0.190165 -0.0753279
-0.0799828 0.0416023 -0.0852114
-0.0541818 0.0641911 -0.0795572
-0.077541 0.0373958 -0.0961094
-0.0498135 0.175532 -0.0273247
-0.0791089 0.040822 -0.0900999
-0.011021 0.120816 -0.180513
0.0399617 0.174874 -0.104327
-0.109188 -0.00812752 -0.0715867
-0.0979618 0.0318818 -0.0495011
-0.0546384 0.0639114 -0.0781378
0.0306743 0.0578189 -0.0722792
-0.101245 0.0177575 0.0575984
-0.0596908 0.0656604 -0.0307099
0.0320669 0.0561128 -0.0707188
0.00515937 0.0673404 -0.101141
-0.064366 0.12861 -0.0984919
-0.0518656 0.060708 -0.0273537
0.00642044 0.0680795 -0.100959
-0.0445893 -0.00500444 -0.113014
0.00132609 0.140473 -0.152947
-0.0395891 -0.00579881 -0.115586
-0.0422525 -0.00534534 -0.114321
-0.055999 0.062649 -0.0653348
-0.0545507 -0.00449372 0.132627
-0.0782449 -0.00682543 -0.0908067
-0.0870815 0.0304644 0.0526748
0.00524073 0.155924 0.0177319
-0.0475216 0.201409 -0.0355924
0.0621439 0.00195003 0.138618
-0.0968694 -0.00524417 0.0737174
-0.0813659 0.0342306 0.0522794
-0.0218079 0.157995 0.0264657
0.0454657 -0.00994024 -0.132325
-0.0339193 0.11081 -0.175108
-0.0453077 0.195096 -0.0684571
-0.0426615 0.106527 -0.161936
-0.0416588 0.107314 -0.165214
0.0330597 0.0536263 -0.0275135
0.0344503 0.0580123 -0.0684895
-0.0414284 0.0632412 -0.100391
0.0316516 0.043212 0.0647899
0.0333544 0.0536898 -0.028247
-0.00068654 0.0673425 -0.104148
0.10191 0.0132904 0.0588653
0.0221222 0.107131 -0.165618
0.0318699 0.10164 -0.169015
0.0363147 0.138366 -0.125085
-0.0648356 0.0970037 -0.055429
0.0423321 0.102951 -0.158011
0.0523604 -0.00870317 -0.126995
0.0400994 0.10243 -0.121169
-0.0463601 0.063252 -0.09442
-0.0776734 0.140378 -0.0749774
-0.0375501 0.0646995 -0.103622
-0.0379335 0.0644855 -0.103491
0.0605727 0.192585 -0.0368288
-0.0492286 0.0598535 -0.0266201
-0.0534814 0.129794 -0.116774
-0.0462145 0.119196 -0.126467
0.069882 0.150199 -0.0335674
0.0396752 0.103013 -0.161814
-0.0619955 0.0668331 -0.0301885
-0.106252 -0.00671221 -0.0741026
-0.0575916 0.0961545 -0.0917422
-0.0236659 0.111739 -0.181906
-0.0519761 0.105021 -0.145731
-0.0512656 0.104427 -0.145664
-0.0489535 0.0634999 -0.0890555
0.0399073 0.102184 -0.120686
-0.0111996 0.113096 -0.186915
-0.0574348 0.0623196 -0.061012
-0.0547715 0.118835 -0.108795
-0.0543055 0.117114 -0.107814
0.111393 -0.0160446 0.0131602
-0.10456 0.0244778 -0.0529106
-0.0437727 0.111599 -0.11291
-0.0523495 0.0640756 -0.0829461
-0.0517769 0.0639124 -0.0838898
0.00918173 0.0624541 -0.0866913
0.111405 -0.016698 0.00714286
-0.0857257 0.151068 -0.0380398
-0.0203666 -0.0105107 -0.123514
-0.0609252 0.0956475 -0.0827657
-0.061835 0.0958786 -0.0802064
-0.0324326 0.0635427 -0.00793295
-0.0496255 0.185742 -0.0816282
0.0305667 0.102087 -0.170429
0.0675428 0.0849072 -0.0319046
-0.0805283 0.037088 -0.0372508
0.0358926 0.148734 0.0114102
-0.0797749 0.0370727 -0.033774
-0.0458011 0.0631288 -0.0950663
-0.0451982 0.0630147 -0.096018
-0.0559252 0.0639443 -0.072716
0.0362954 0.137096 -0.125481
-0.0555346 0.0641552 -0.0755591
0.0203987 0.0653616 -0.0885317
-0.0502196 0.0600836 -0.0271206
-0.0794947 0.14286 -0.0706748
-0.0599416 0.0954005 -0.0851955
-0.0630643 0.0393466 0.0091706
0.0259454 0.0567985 -0.0748582
-0.11331 0.0122048 -0.0650208
0.0730112 0.132464 -0.0223988
0.0478018 0.103037 -0.1465
-0.114238 0.00979882 -0.0660208
-0.092708 -0.00138908 0.0868765
-0.0334184 0.113726 -0.171742
-0.0460134 0.119399 -0.125451
0.0720877 -0.010299 -0.0668278
0.0612191 0.0241023 0.00710338
0.0601187 0.00263223 0.139184
-0.119743 -0.0182938 -0.0647607
0.0720975 -0.0113087 -0.0692506
-0.00671925 -0.0128811 -0.125867
0.071193 0.0273391 -0.0226559
-0.03454 0.0702721 -0.101916
0.0430364 0.0256387 0.0377867
0.0296713 0.0472221 0.0705212
-0.111862 -0.0103294 -0.0691819
0.0715294 -0.00192109 0.133086
0.0466569 0.104501 -0.129495
-0.0298811 0.111242 -0.177348
-0.0524911 0.0981454 -0.118237
0.00501982 0.218323 -0.0411768
-0.119956 -0.0179079 -0.0620359
0.0166571 0.0878756 0.10955
-0.11761 -0.00820778 -0.0610835
0.0700147 0.00250588 0.128852
-0.109479 -0.0083182 -0.0712299
-0.0372387 -0.00680361 -0.116465
0.039712 0.101852 -0.120729
0.016711 0.0868693 0.110676
-0.0475508 0.122536 -0.152002
0.0439579 0.115684 -0.146142
0.0393348 0.101248 -0.121405
-0.0419022 0.125126 -0.148359
0.0480262 0.102429 -0.10856
0.0269876 0.0584102 -0.0757582
-0.00300787 0.169975 0.0337392
-0.0476593 0.0632224 -0.0919085
0.0472253 0.102457 -0.127276
-0.04462 0.0618795 -0.0179476
-0.0393655 0.0631715 -0.0123787
0.0399739 0.102151 -0.12126
-0.0427078 0.0627637 -0.0990566
-0.0227928 -0.0100314 -0.122957
-0.109485 -0.0114653 0.0461315
0.0105377 0.060709 -0.084537
-0.0228977 0.128882 -0.12952
-0.053227 0.0617515 -0.027055
0.0697814 0.0295058 -0.0195443
-0.0476144 0.106535 -0.107726
-0.0184354 0.16094 0.0281522
0.0180208 -0.0117086 -0.130751
-0.0656817 0.12124 -0.0327761
-0.0353157 0.110666 -0.174489
0.0619205 0.0700312 -0.0300248
0.0330604 0.0536761 -0.0273297
-0.0805799 0.0417473 -0.0795305
0.0363131 0.102905 -0.165626
-0.044333 0.20278 -0.0351685
0.0198445 0.0491069 0.0497734
-0.115365 0.00637273 -0.0663799
-0.105718 0.0239981 -0.0542934
0.0162938 0.0493142 0.0495989
-0.0317496 0.0475766 0.0505949
0.038448 0.0310686 0.0502751
-0.114327 -0.0256483 -0.0238517
0.0010426 0.0735106 0.00451725
0.0631287 -0.0284868 -0.0981897
-0.0223549 0.164517 0.0271706
0.0606275 0.100611 -0.0786644
-0.0667449 0.0404621 0.0511648
-0.0589951 0.123431 -0.102802
-0.103032 0.0258823 -0.0519082
0.0463303 0.10189 -0.150196
0.0719689 0.00852479 -0.0439104
0.0635794 0.00166257 0.13797
-0.000369744 0.0689281 0.0932969
0.0661894 0.0290233 -0.011382
-0.0513341 0.189932 -0.0317885
-0.0481036 0.104873 -0.107117
-0.0177433 0.12929 -0.129537
0.0287768 0.0489664 0.0729924
0.0117283 0.063732 -0.088537
0.046226 0.103808 -0.131278
0.035126 0.211399 -0.044184
0.0461913 0.114977 -0.144869
0.0480548 0.103506 -0.143204
0.0719257 0.0133653 -0.0393911
0.0223881 0.0636134 -0.0840285
0.0677287 0.162095 -0.0312328
0.056732 -0.0265419 -0.108395
0.111378 -0.016015 0.00964524
0.0709013 -0.00114103 0.133299
0.026886 0.102205 -0.173231
0.0222045 0.106629 -0.171547
0.0221458 0.106493 -0.173511
0.0226169 0.151287 0.0137135
0.0253617 0.101452 -0.173906
-0.0356724 0.157744 0.0217215
0.0637783 0.0235174 -0.00251292
0.0621307 0.0233489 0.00395144
0.0628507 0.0227524 0.00181134
0.0852557 0.0293751 0.0503379
-0.0126658 -0.0045416 0.139814
-0.0535886 0.064254 -0.0808219
0.0346723 0.149934 0.0121646
-0.0461992 0.119291 -0.126397
0.0898503 0.0272617 0.0522794
0.0721878 -0.014397 -0.074174
0.0158228 0.0754436 0.00698537
0.0625903 -0.0110203 -0.110713
-0.118308 -0.0115442 -0.0617645
-0.0552397 0.0963152 -0.09616
0.0404812 0.0526087 -0.0210321
-0.117513 -0.00244254 -0.0633991
0.0592171 -0.0105884 -0.117747
0.0951607 -0.0109639 0.0566835
-0.0178666 0.0476494 0.0512108
0.0150831 -0.0117172 -0.130631
0.0274844 -0.00924704 -0.129795
-0.0010627 0.196084 -0.0397829
0.0250161 0.0552702 0.0844997
-0.0398715 0.0635745 -0.102097
0.0416408 0.147153 0.00912478
-0.0723468 0.0391613 -0.0074582
-0.0537624 0.116508 -0.106591
0.0420934 0.0558031 -0.0583275
-0.0534818 0.174133 -0.0986076
0.0752348 0.130197 -0.0256751
-0.0522549 0.0427394 0.0239988
0.0745218 0.129357 -0.0254988
0.0743362 0.12951 -0.0253163
0.0232943 0.0566206 -0.0757569
0.0963249 0.0159071 0.0549466
0.0433025 0.205158 -0.0423268
0.07002 0.141287 -0.0352227
0.0331437 0.0536561 -0.0278672
0.0700093 0.137428 -0.0352804
0.0771978 0.0301939 0.0516632
-0.0460308 0.123621 -0.15327
-0.0582892 0.095752 -0.0898416
-0.00722425 0.193928 -0.0411401
0.027705 0.0564337 -0.0736768
-0.0494721 0.0635449 -0.0879711
0.0925767 0.0191733 0.0553906
0.0704323 -0.0212229 -0.0865248
0.0634075 0.100812 -0.070257
-0.0710907 0.0398065 -0.0046175
0.0542582 0.0999383 -0.0363205
-0.0616436 0.0640532 -0.0524217
-0.055815 0.0641693 -0.0743948
-0.0539574 0.17584 -0.0957354
0.0544101 0.0994461 -0.0377099
0.0749774 -0.00179863 0.120979
-0.0202798 0.15932 0.0272329
0.0555142 0.0985612 -0.0375074
0.0703563 0.147719 -0.034258
0.0706264 0.146079 -0.0347249
0.0436897 0.0549542 -0.0553618
-0.0108004 0.119431 -0.185066
0.0444147 0.147183 0.00706343
-0.078095 0.0387437 -0.0940533
0.0100629 0.0706021 0.106774
0.0703178 0.135295 -0.0179649
-0.0559138 0.153621 0.0133272
-0.0281843 0.11127 -0.17818
0.0578678 0.142634 -0.00361097
-0.0785456 0.040069 -0.0920444
-0.0553941 0.164396 -0.0274743
-0.00635914 0.0630219 0.0869187
-0.0538722 0.166216 -0.0269014
-0.0378816 0.120239 -0.12791
0.0668618 0.0825809 -0.0326682
-0.0624886 0.0415479 0.0512595
0.0668022 0.0811025 -0.0298202
0.0654837 0.0784586 -0.0294834
0.0696097 0.15173 -0.0331195
0.060974 0.191749 -0.0359956
0.046038 0.20263 -0.0407221
0.0702303 0.142892 -0.0353816
0.101737 0.00399861 0.0670117
-0.0592337 -0.00463055 -0.105872
-0.0145401 0.0704921 0.00206126
0.0502268 0.101606 -0.102613
0.0193495 0.0674091 -0.0906208
0.0091875 0.0740173 0.00471971
0.0652578 -0.0274073 -0.0953348
0.0105796 0.202732 0.0190104
-0.00907459 -0.0127177 -0.125061
0.0676942 0.137808 -0.0139546
-0.116031 0.00389363 -0.0658672
0.0459307 0.102482 -0.134731
0.0107986 0.0600843 -0.0837579
0.00782148 0.0688215 -0.100223
-0.0407235 0.108125 -0.167807
0.0607882 0.0994766 -0.0756214
0.0445702 0.102381 -0.114683
-0.0551488 0.0639597 -0.0766441
-0.0429225 0.105972 -0.160698
-0.0527438 0.104831 -0.144447
-0.0217466 0.169499 0.027339
0.00802054 0.104932 -0.179373
-0.0441874 0.104316 -0.155861
0.0220844 0.056803 -0.0763138
0.00956774 0.0631249 -0.0875093
0.0524044 0.181919 -0.034404
0.0337978 0.0559093 -0.0691013
-0.0642479 0.0967937 -0.0655658
0.00351121 0.131172 -0.128511
0.0237819 0.128355 -0.128329
0.0148945 0.189848 0.0276031
-0.0202098 0.0527028 0.071355
0.0154488 0.186329 0.0295074
-0.00438435 0.073364 0.00476313
-0.0424137 0.106859 -0.16289
-0.00792455 0.0738961 0.00481917
-0.0501169 0.184793 -0.0302278
-0.00654815 0.0741551 0.00505166
-0.011701 0.166025 0.0310304
-0.0795521 0.0412041 -0.0876723
0.0253623 0.0591001 -0.077416
0.00876719 0.106718 -0.179412
0.0461921 0.102605 -0.135259
-0.0015007 0.162679 0.0240184
-0.0098135 0.168069 0.0319861
0.0258252 0.0539011 0.0816529
-0.0392301 0.0526388 0.0346823
0.0395329 0.116874 -0.146184
0.0141623 0.1816 0.0316539
-0.0623238 0.126686 -0.100187
0.0127036 0.178346 0.0333703
0.0693161 -0.0106006 -0.100173
-0.0916962 -0.000354552 0.0910851
-0.00331274 0.170859 0.0336739
0.0143887 0.130124 -0.128319
0.0313066 -0.0132158 -0.139944
0.0519891 0.100625 -0.0977494
0.0481431 0.0240614 0.0288303
0.041109 0.166388 -0.110931
0.0577184 0.100854 -0.0870671
0.0550625 0.100836 -0.0349012
0.0400233 0.147927 0.0100051
-0.019393 -0.00488075 0.138987
0.0433806 0.146982 0.00784269
-0.0632948 0.072285 -0.0321978
0.0221343 0.106837 -0.169628
-0.050751 0.0635148 -0.0853425
-0.0330746 0.113774 -0.170857
-0.0527915 0.10138 -0.134934
0.036483 0.134626 -0.125898
-0.0500436 0.155949 0.0164478
0.0177574 0.0826211 0.108121
0.0408863 0.103252 -0.160088
0.0414426 0.103005 -0.159107
0.0110836 0.0635154 -0.0880968
-0.0645629 0.0503384 -0.0278677
0.0381986 0.124445 -0.122185
0.0362605 0.12313 -0.12237
0.0624732 0.184184 -0.0358952
0.0704065 0.131194 -0.035464
0.0179514 0.217397 -0.0418097
0.00284461 0.198597 -0.0390533
-0.00599726 -0.00449722 0.140338
0.0690241 0.124046 -0.0339836
0.0491116 0.101463 -0.105037
0.0562757 0.143439 -0.00211791
0.0274761 0.214859 -0.0419354
0.0401302 0.0288175 0.0450492
0.0545185 0.143404 -0.000867588
-0.085039 0.149342 -0.0415907
0.0937341 -0.0103593 0.0599067
-0.0268267 0.156427 0.0239479
0.065802 0.167481 -0.0319325
0.0526562 0.143826 0.000572833
-0.0685009 0.144709 -0.0291349
0.0592313 0.14215 -0.00481945
-0.109825 -0.00897151 -0.0705234
0.0701746 0.134792 -0.0349726
-0.0157994 0.129876 -0.148448
0.036678 0.140032 -0.124573
0.0281697 -0.0100872 -0.129351
-0.110501 0.0174475 -0.0609328
-0.0129301 0.0717608 0.0030206
-0.0452244 0.061609 -0.0188704
0.0232609 0.108912 -0.157344
0.0534053 0.100853 -0.095117
-0.0153323 0.122725 -0.161535
0.0339127 0.0389543 0.0597799
-0.00745296 0.0681031 -0.105904
0.0045735 0.0709784 0.099143
0.0583844 0.0240412 0.0107799
0.0397022 0.152503 -0.12047
0.0191833 0.0575402 -0.0781035
0.0620033 -0.0284223 -0.0996399
-0.0530339 0.115448 -0.108244
0.0641239 -0.0278042 -0.0969262
0.00873176 0.135675 -0.152018
-0.0227355 0.166968 0.0269634
0.0720878 -0.0135726 -0.0730653
-0.00147655 -0.0126481 -0.127875
0.0223004 0.10737 -0.164541
0.00317203 0.073488 0.00431321
0.0282351 0.127442 -0.128181
0.0102672 0.131298 -0.128387
-0.0672994 0.147148 -0.0286451
0.0398327 0.176088 -0.103077
0.0189378 0.129089 -0.128379
0.0130598 0.0592147 -0.0821788
-0.0595392 0.158154 -0.0285512
0.0347093 0.121246 -0.122123
0.0213396 0.128492 -0.128422
-0.0374215 0.069307 -0.102698
-0.0471059 0.107635 -0.108571
-0.0571455 0.161652 -0.0287343
0.0716242 -0.0171052 -0.0812709
0.0654442 0.1691 -0.0325097
0.0212749 0.0642002 -0.0862436
-0.115002 0.00732395 -0.0663669
0.0655695 0.168351 -0.0321946
-0.0310557 0.15767 0.0230521
-0.0378322 0.117235 -0.118372
0.0548473 -0.00983223 -0.123393
-0.117489 -0.0195975 0.0028496
-0.0653853 0.131341 -0.0219498
-0.059865 0.151667 0.00981986
0.0101705 0.0611439 -0.0850554
-0.0145251 0.130597 -0.128979
-0.0512053 -0.00471123 0.133686
-0.036797 0.121486 -0.127968
0.00885714 0.154003 0.0161174
-0.0193249 0.128918 -0.129581
0.0395028 0.150569 -0.121105
-0.0104866 0.166719 0.0314467
0.0689716 0.156097 -0.0320097
0.0398338 0.154814 -0.119186
-0.0640635 0.0990534 -0.0269665
-0.111322 -0.0128891 0.0405559
-0.0421453 0.0629056 -0.0995935
-0.0564687 0.120675 -0.104795
-0.053411 0.131306 -0.116705
0.0419265 0.116165 -0.145245
-0.0602073 0.12478 -0.102049
-0.0485927 0.103765 -0.148421
-0.0490787 0.103775 -0.147709
-0.065373 0.0659463 -0.0470546
-0.0522375 0.096684 -0.101153
-0.0501104 0.104157 -0.14671
-0.0544821 0.150814 -0.113736
0.054815 0.0583219 -0.0313078
0.00971156 0.0616298 -0.0855928
0.0720247 -0.00647982 -0.0607849
-0.0290378 0.207769 -0.036467
0.0376098 0.102516 -0.163857
0.0381182 0.102013 -0.162797
0.0367854 0.132653 -0.126046
-0.0437272 0.0624476 -0.0167651
0.0589336 0.00236758 0.139096
0.00352118 0.199095 -0.0383184
-0.00530963 0.194037 -0.0411153
-0.0634796 0.0730681 -0.0323468
0.0345485 0.118623 -0.148766
0.109813 -0.0180833 -0.00519104
-0.0653065 0.132521 -0.0202526
0.0720501 -0.0148415 -0.0757557
0.0413229 0.206995 -0.0438445
0.0785909 -0.00374334 0.108109
0.00187004 0.048124 0.049899
-0.0881856 0.000485701 0.103246
-0.063862 0.099025 -0.0252047
0.0725482 -0.00192833 0.124755
-0.0517479 -0.00419791 -0.109812
0.0576258 0.0609382 -0.0219773
-0.0529213 0.0965634 -0.0999247
-0.0435544 0.104833 -0.157673
0.039185 0.0567083 -0.0621207
0.0683779 0.12227 -0.0333463
-0.0551698 0.139221 -0.115698
0.0548118 0.0598078 -0.0148848
0.00734725 0.207453 0.0135086
-0.0558022 0.0629012 -0.0667898
-0.0541532 0.146118 -0.114524
0.0615721 0.0994454 -0.0728662
-0.0443307 0.062803 -0.0971613
0.0175764 0.0762288 0.0080463
-0.0524242 0.100955 -0.104814
-0.0110263 0.072363 0.00377946
-0.0479155 0.118369 -0.144392
-0.054427 0.117354 -0.105686
-0.0550312 0.143045 -0.115226
0.00868024 0.205026 0.0165004
-0.119942 -0.0159348 -0.0665151
-0.0406517 0.0511112 0.0321444
0.0692506 0.154387 -0.0323342
-0.0997417 0.0298835 -0.0493087
0.0477286 0.00207084 0.139861
-0.0162464 0.0691354 0.000895341
-0.0656969 0.124008 -0.0325988
-0.0403541 0.108562 -0.168888
-0.0139732 0.121359 -0.16915
0.0414605 0.162649 -0.114376
-0.0555587 0.0633199 -0.0703573
-0.0256379 -0.00521363 0.137933
0.0165492 0.0683329 -0.0934284
-0.0511565 0.171331 -0.0262756
-0.0857403 0.150307 -0.0396805
-0.0510588 0.183679 -0.0844321
0.0669302 0.164664 -0.0316666
0.0834468 0.0292704 0.0509903
-0.0115001 0.0480455 0.0506859
0.03943 0.208623 -0.0453141
-0.0511203 0.104362 -0.14573
-0.080595 0.03832 -0.0456471
0.0456536 0.14631 0.00593746
-0.06395 0.0978006 -0.0331803
-0.00953597 0.0730665 0.00435522
0.0371295 0.2104 -0.0445041
0.0271463 0.151224 0.0134247
-0.0358296 0.0697429 -0.101554
-0.025185 -0.00943004 -0.1222
0.00918908 0.0625428 -0.0869784
0.0211819 0.0772354 0.0125517
0.0470437 0.10143 -0.127154
-0.053725 0.0995087 -0.103869
0.0583749 0.0997534 -0.0840555
0.037178 0.0648201 0.00672101
0.0137989 0.0590797 -0.081763
0.11146 -0.0161237 0.00440878
0.0350807 0.0652452 0.00824207
-0.0297294 -0.00879769 -0.119798
-0.0502875 0.173516 -0.0266567
-0.0471843 0.0597955 -0.0236961
-0.0530796 0.103577 -0.141188
-0.0226231 0.0654111 -0.00283635
6.47369e-05 0.160172 0.0213387
-0.0944776 0.0245076 0.0541898
-0.040955 0.0634005 -0.101014
0.0570774 0.0240349 0.0130057
-0.0523589 0.0982727 -0.119843
-0.018049 0.0534473 0.0746042
0.0518909 0.0521037 -0.0323266
-0.000608393 0.160614 0.0222697
0.0350153 0.123559 -0.124584
-0.114693 -0.0279233 -0.0373446
-0.071999 0.133477 -0.0873094
-0.0660569 0.129839 -0.0969801
-0.0235279 0.216727 -0.0373965
0.09408 0.0192904 0.0545605
-0.116651 0.00142465 -0.0648539
-0.023995 0.184693 0.0251219
-0.0537727 0.16035 -0.109521
-0.0813238 0.145443 -0.0653733
-0.0383776 -0.00461888 0.137057
-0.0438645 0.197895 -0.0652482
-0.114668 -0.0246018 -0.0192595
0.0379535 0.12386 -0.121799
0.0987797 0.0140776 0.0550429
-0.0575948 0.0402822 0.0176572
-0.0903095 -8.53395e-05 0.0955283
0.0171673 0.085469 0.110119
-0.0804023 0.037831 -0.0411756
-0.116855 -0.0213353 -0.00631605
0.0640485 0.139732 -0.00986526
0.0500264 0.0546894 -0.0298489
0.0169185 0.0862976 0.110304
-0.0118101 0.0575182 0.0812602
-0.0329491 0.11074 -0.175572
-0.0829461 0.14746 -0.0588256
0.0401501 0.207902 -0.044664
0.00077479 -0.00487882 0.140249
0.0134038 0.0678537 -0.0954519
0.0788909 -0.00317318 0.110322
-0.00421335 0.131919 -0.128143
-0.0102885 0.0592466 0.0835475
0.0227336 0.107605 -0.163832
0.0470878 0.101953 -0.127703
0.0331579 0.101579 -0.167622
-0.00126072 0.0738052 0.00474739
-0.0858065 0.150946 -0.0387786
0.00407777 0.214107 -0.0360612
0.0384259 0.147087 -0.122649
-0.0305004 0.111082 -0.176989
-0.0396727 0.158313 0.0209418
-0.0585854 0.15192 0.0106379
-0.0502261 0.118761 -0.148135
0.0114268 0.153477 0.0154784
-0.0053462 0.0678121 -0.105639
0.0158588 0.0582464 -0.0802187
0.0175521 0.0843635 0.109259
-0.110567 -0.00953301 -0.0699737
0.00553038 0.211187 0.00695031
-0.112657 -0.00983785 -0.0693877
-0.051284 0.155096 0.0156009
-0.0459589 0.0462605 0.0288017
0.0132817 0.196035 0.0241111
0.00240282 0.0704409 0.0971221
-0.0805725 0.0421341 -0.0671344
-0.116507 0.00213387 -0.0649814
-0.0411207 0.158435 0.0204849
-0.0181028 -0.0106786 -0.12397
0.0387046 0.209246 -0.0451995
-0.0624075 0.0679874 -0.0309378
0.0468248 0.102097 -0.109956
-0.0221751 0.16309 0.0273154
-0.0456261 0.120431 -0.126047
-0.0524635 0.0981871 -0.118982
-0.0526834 0.098473 -0.118009
-0.0473371 0.103674 -0.150092
-0.0182775 0.0676064 -0.000373525
-0.0858748 0.150958 -0.0356756
-0.0533884 0.0984319 -0.11601
-0.063012 0.07209 -0.0319168
0.0088191 0.0682398 -0.0993155
0.0569813 0.0622216 -0.0271357
-0.0159537 -0.00480967 0.139292
-0.00446704 0.194259 -0.0412569
-0.0420574 0.0462085 0.0506581
0.00600315 0.131313 -0.128473
-0.0581342 0.0626153 -0.0592947
-0.0316187 0.12277 -0.122937
-0.0999079 -0.00551752 -0.0776047
0.0374087 0.148119 0.0107518
0.0407532 0.16794 -0.110044
0.0544135 0.060311 -0.0130992
0.0138448 0.152131 0.014629
-0.0636268 0.0650905 -0.0499233
0.0468274 0.0529973 -0.0369705
0.0694087 0.153225 -0.0327323
0.0510674 0.181573 -0.0347101
0.0426496 -0.0104575 -0.134237
0.0637988 -0.0108945 -0.108291
0.0615668 0.00218419 0.138814
-0.058343 0.0426478 0.0512904
-0.0594937 0.0651321 -0.0308321
-0.0403477 0.0633769 -0.101567
0.0684784 0.159053 -0.0317231
-0.0575859 0.122084 -0.104121
-0.0405923 0.063079 -0.0134169
0.0161814 0.152021 0.0142213
0.0336931 0.120137 -0.122619
0.000777981 0.197689 -0.0396725
-0.117656 -0.003885 -0.0625918
-0.0386157 0.0468284 0.0504507
-0.0556695 0.119331 -0.10491
0.0224341 0.0609861 0.0920355
0.094128 0.0176076 0.0552658
-0.0773791 0.0380642 -0.0213502
-0.118744 -0.0128289 -0.0619298
0.00700751 0.0736023 0.00441461
0.0469504 0.103076 -0.137802
0.018065 0.0684709 -0.0923376
-0.0758781 -0.00658277 -0.0928024
-0.0922478 0.026228 0.0537779
0.0473336 0.102523 -0.147507
-0.00181399 0.0677966 0.0916214
-0.0853453 0.14983 -0.0406436
0.04509 0.0562616 -0.0549212
-0.0806507 0.0413175 -0.0594041
-0.0168623 0.16208 0.0288435
0.0420764 0.0265155 0.0403258
0.0393083 0.0298269 0.047375
-0.0805139 0.0421508 -0.070464
0.012521 0.130635 -0.128327
-0.074515 0.0385574 -0.0126508
0.0702801 0.132962 -0.0352889
0.0536049 0.100661 -0.0374028
-0.00266048 -0.00492248 0.140258
0.0379353 0.14459 -0.123428
-0.032294 -0.00486462 0.137884
0.066569 0.0800932 -0.0330057
0.0538694 0.100295 -0.0365742
0.0641651 0.075923 -0.0293045
-0.00235221 0.0678596 -0.105073
-0.0857101 0.151188 -0.0337405
-0.0683948 0.0401376 0.00026312
0.0411497 0.147387 0.00947009
0.0267471 0.0521618 0.0790401
0.039014 0.102454 -0.16216
0.0704136 0.0288108 -0.0210714
-0.0544106 0.155109 -0.112693
0.00751574 0.0487529 0.049674
-0.0495872 0.103724 -0.14675
0.0125446 0.0711359 0.109805
-0.0233549 0.0524688 0.0651042
-0.0563509 0.0989337 -0.102483
-0.0218038 0.0525531 0.0685714
-0.0698462 0.0399785 -0.00192867
0.00882618 0.0620716 -0.0863512
-0.0555363 0.0631789 -0.0692636
-0.00235095 0.195366 -0.0406226
-0.114111 -0.0270033 -0.0579049
-0.114059 -0.0252426 -0.0594954
-0.0548025 0.168767 -0.1029
-0.103617 0.0106863 0.0611332
0.0395138 0.101847 -0.120564
-0.0337663 0.157937 0.0222157
0.0550531 0.0594292 -0.0176329
-0.0963337 0.0224824 0.0551389
0.0211145 0.151471 0.0137957
-0.0695888 0.141736 -0.0300818
-0.0351915 0.0472654 0.0503917
0.0210173 0.0651197 0.0961035
-0.0348337 -0.00717217 -0.117686
-0.0101647 0.113128 -0.187021
0.0114544 -0.00452997 0.140146
0.00608704 0.0707452 0.101409
-0.0568019 0.0622132 -0.0626941
0.0188641 -0.00335053 0.140353
-0.115396 -0.0285351 -0.0419856
-0.0213111 0.0477024 0.0510269
0.0277985 0.050394 0.0759438
-0.05565 0.0630579 -0.0681198
-0.114725 -0.0237398 -0.0143643
0.0706097 0.145557 -0.0347063
-0.0508836 0.186429 -0.0317579
0.0706965 0.146267 -0.0346269
-0.0544127 0.118503 -0.109232
0.0583097 0.00240219 0.139077
0.0498399 0.00271756 0.140058
-0.0627847 0.069389 -0.0313523
-0.0499975 0.0634694 -0.0867789
0.00815866 0.10602 -0.179293
0.0512133 0.101313 -0.0999961
-0.0942181 -0.00582473 -0.0800499
-0.0922302 -0.00655674 -0.0808326
0.0148768 0.0676568 -0.0943257
0.0233445 0.109604 -0.155223
-0.0646149 0.0972415 -0.0464394
-0.0364273 0.11835 -0.119383
0.0484206 0.0497792 -0.0282619
0.019634 0.0762826 0.00953385
-0.0127848 0.131174 -0.128723
-0.061445 -0.00479609 -0.104401
-0.0419893 0.063399 -0.0143845
-0.00678892 0.131871 -0.128145
-0.034249 0.120588 -0.121203
0.0545071 0.0235492 0.0172113
-0.0320732 0.122104 -0.122619
-0.106825 -0.00687163 -0.0736332
-0.0539111 -0.00420922 -0.108836
0.0412119 0.158878 -0.116288
-0.07942 0.0369055 -0.03011
-0.107225 0.0219828 -0.0565412
0.0608647 0.0675242 -0.0295558
-0.107627 -0.00744984 -0.0728722
-0.0806006 0.0394834 -0.0498917
-0.112671 0.0133812 -0.0639035
-0.0575761 0.152312 0.0115808
0.00672897 0.154628 0.0167528
-0.0506285 0.10446 -0.14641
0.0148656 0.183775 0.0308223
-0.0348507 0.0634005 -0.00931069
0.110678 -0.0198935 -0.022553
-0.0511861 0.102521 -0.105449
-0.0839589 -5.2247e-05 0.114344
-0.111938 0.0148092 -0.0629453
0.032516 0.0580539 -0.0706622
0.0454374 0.102677 -0.152908
0.00916966 0.0619719 -0.0860935
0.0701175 0.139081 -0.035557
-0.0366501 0.0700394 -0.102047
0.0259454 0.0482046 0.0504548
0.035976 0.0574452 -0.0666671
-0.0612389 0.151165 0.00891684
-0.0806031 0.0419247 -0.0635876
0.0520053 0.0524844 -0.0321214
0.0371191 0.122165 -0.121091
-0.116184 -0.0163549 0.0230433
0.00777729 0.105198 -0.179602
-0.0203631 0.0666416 -0.00150333
-0.0159585 0.124686 -0.156536
-0.0857859 0.151109 -0.0369982
0.0518628 0.0608446 -0.00835851
-0.0645989 0.0969367 -0.0506696
-0.0434681 0.0626584 -0.0981547
-0.0825467 0.147051 -0.060863
0.01154 0.199669 0.0216085
-0.0504017 0.185553 -0.0308509
0.0651538 0.000675578 0.136974
-0.04286 0.0492291 0.0315398
-0.0901019 -0.00694513 -0.0820839
-0.0216267 0.128718 -0.129697
0.00173233 0.159303 0.0203718
-0.0500274 0.180917 -0.0298281
-0.10467 -0.00901197 0.0575453
-0.0539304 0.0966032 -0.0985081
0.00103181 -0.0122841 -0.128801
-0.0819513 0.146296 -0.0630895
0.0630187 0.0729367 -0.0298034
-0.113925 -0.0266037 -0.0281127
0.0807175 -0.00375633 0.102586
-0.0531683 0.0987844 -0.117044
0.0644565 0.00115487 0.137452
0.0635065 0.0226186 -0.000518731
-0.0690112 0.131545 -0.0933147
0.0594785 0.100195 -0.0809061
-0.0543988 0.0416853 0.022187
-0.0378626 0.065333 -0.103491
-0.028169 0.129008 -0.128726
0.0608509 0.00243572 0.139046
0.0353357 0.0556256 -0.0674153
-0.0640544 -0.00493623 -0.102513
0.0560852 0.100613 -0.0899052
-0.080763 -0.00733754 -0.0886197
-0.0633032 0.0962348 -0.0709643
-0.0145182 0.0478503 0.0508949
0.0169563 0.0581173 -0.079592
-0.0661956 0.076981 -0.0312307
-0.0566187 -0.00441016 -0.107451
-0.0515807 0.0968171 -0.102361
0.0120951 0.0709008 0.108984
0.00754277 0.0707172 0.104296
-0.0379454 0.0629273 -0.0114413
-0.0290714 0.111355 -0.177768
-0.0706319 0.0390877 0.0514463
-0.0142479 0.0555357 0.0790623
0.0211524 0.0784693 0.0134799
0.0125713 0.0751972 0.00602965
-0.0457982 0.0614145 -0.0196642
0.0147417 0.0586252 -0.0810206
0.0236567 0.111066 -0.152185
0.0444505 0.102654 -0.154967
0.00432456 -0.00487759 0.14015
-0.0656415 0.0756735 -0.0313232
0.0750805 0.129624 -0.0256888
0.0464084 0.104604 -0.130536
-0.00402462 -0.0129314 -0.126922
0.0349885 0.0371203 0.057215
-0.0762766 0.0383141 -0.0188449
0.0650977 0.170273 -0.032643
-0.0733312 0.0387933 -0.0102952
0.000912292 0.131366 -0.128481
0.0701161 0.129533 -0.0349257
-0.0283056 0.0476767 0.0508405
0.0436964 0.118271 -0.121854
-0.0639547 0.0974047 -0.0369017
-0.0359067 0.11995 -0.164352
-0.0656845 0.0671061 -0.0387825
-0.117767 -0.0177317 0.012245
0.0720666 -0.0045411 -0.058214
0.048058 0.0538585 -0.0315323
0.0139128 0.0753904 0.00629272
0.0370348 0.102852 -0.16484
0.068786 0.157696 -0.0318528
0.0170014 0.0758191 0.00738612
0.0744806 0.129698 -0.0251983
0.0811566 0.0294421 0.0518848
-0.0353736 0.119851 -0.120402
0.0474246 0.102729 -0.126592
0.0463293 0.102603 -0.136544
-0.0523173 0.19407 -0.0337107
-0.0517646 0.191345 -0.0325951
0.0146265 0.0755895 0.00673884
0.0556397 0.103972 -0.0344609
-0.0704799 0.131825 -0.0895726
-0.0457945 0.04545 0.0508288
-0.119801 -0.015541 -0.0657261
0.0180816 0.0579083 -0.0789019
0.0735383 0.0309132 0.0519107
0.00907747 0.0626311 -0.0871567
0.0640209 0.174132 -0.0334307
-0.0159394 -0.0114897 -0.123948
0.0218367 0.0630966 0.0943861
-0.0832552 -0.0072804 -0.0868687
0.0687925 0.102408 -0.0604396
0.0471354 0.145564 0.00478594
-0.0878779 -0.00689133 -0.0835549
-0.105711 -0.00652961 -0.0745619
0.0163309 0.129695 -0.12834
-0.04749 0.118546 -0.145434
-0.0802719 0.143922 -0.0685941
0.0476674 0.103606 -0.127425
-0.0586932 0.0627285 -0.0576246
0.0535338 0.0232497 0.019391
0.0125941 0.133293 -0.152502
-0.0450521 0.110052 -0.111443
-0.000149094 0.196665 -0.0394123
0.0737209 0.128755 -0.0253933
0.0401086 0.172661 -0.106495
0.0477041 0.10324 -0.139768
-0.059511 0.0902248 -0.0860563
-0.0767343 0.139066 -0.0772238
-0.00935454 -0.00443685 0.140172
0.0563902 0.097916 -0.0374247
-0.0163151 0.129722 -0.129335
-0.0232249 0.174672 0.0264628
0.0439215 0.102038 -0.115645
-0.0525447 0.104935 -0.145022
0.000573244 0.0671757 -0.103213
0.0114447 0.0595824 -0.0830865
-0.0475345 0.0597872 -0.0242281
0.110698 -0.0156102 0.0186842
0.110569 -0.015491 0.0220793
0.0308416 0.0447513 0.0678021
-0.0645073 0.0974183 -0.0415168
0.011721 0.0681457 -0.0969403
-0.0442889 0.0478015 0.0303703
0.0682084 0.160041 -0.0315601
0.00480714 0.0484107 0.0497905
-0.0750423 0.0385582 -0.015933
-0.0392196 0.115973 -0.117241
-0.0467665 0.0599817 -0.0229913
0.0411019 0.0274928 0.0427725
-0.111007 0.016703 -0.0621345
-0.0460284 0.108672 -0.109961
-0.0657454 0.123084 -0.033111
0.0265943 -0.00191405 0.140174
0.0100713 0.0747045 0.00520958
0.0100646 0.0489961 0.0498722
-0.0921099 0.0373239 -0.0489062
-0.0626661 0.0646434 -0.0510888
0.0137616 0.192922 0.0258492
0.00431521 0.0676418 -0.101425
-0.0542648 0.135772 -0.116146
-0.0584477 0.159652 -0.0289411
0.000575978 0.197294 -0.0393175
-0.0759695 0.138153 -0.0792096
-0.0458943 0.103807 -0.152505
-0.0591465 0.0953423 -0.0872257
0.00891661 0.0707349 0.105716
0.0536014 0.100624 -0.0376824
-0.0632798 0.149425 0.0054951
0.0233168 0.0584742 0.0896586
0.0439718 0.102999 -0.156109
0.022554 0.216346 -0.041704
0.0231957 0.113073 -0.145623
-0.0438579 0.104571 -0.156733
0.04781 0.103117 -0.142473
-0.0297188 0.0636528 -0.0065292
-0.10325 -0.00587954 -0.0759898
0.0229657 0.107969 -0.161921
0.0465975 0.102833 -0.137411
0.043486 0.103186 -0.156941
0.00531167 0.0735852 0.00423806
0.0430818 0.11753 -0.121924
-0.0499741 0.0959789 -0.103442
-0.0017989 0.131875 -0.128313
-0.0483453 0.0597127 -0.0253428
-0.0228257 -0.00490557 0.138666
-0.016629 0.0540406 0.077717
-0.0331886 0.113923 -0.171741
-0.117725 -0.00570973 -0.0617218
0.00155738 0.0676298 -0.102964
0.0477087 0.103041 -0.141242
0.02335 0.062218 -0.0819186
-0.0326533 0.115259 -0.169834
-0.0144534 0.1646 0.0302193
-0.0538732 0.165915 -0.105325
-0.0751644 0.137114 -0.0813285
-0.0364302 0.0628477 -0.0104627
-0.00464225 0.0479624 0.0503937
0.0110446 0.074736 0.00563769
0.0547273 0.05692 -0.0254712
0.0331902 0.0542705 -0.0275197
-0.0486834 0.0596602 -0.0258654
0.0400243 0.102382 -0.120983
-0.0647115 0.0737784 -0.0312907
-0.0013217 0.0479946 0.0501583
-0.052843 0.101733 -0.136073
0.110951 -0.0162292 0.00134752
-0.105003 -0.00624518 -0.0750727
-0.052502 0.168992 -0.0266335
0.0679891 0.161023 -0.031275
0.0460701 0.102195 -0.15125
0.0369189 0.118487 -0.122484
-0.069078 -0.00578629 -0.0984687
-0.118002 -0.0101003 -0.06041
-0.0531861 0.157451 -0.1113
0.0299765 0.126453 -0.128336
-0.117089 -0.0170268 0.017737
0.0720422 -0.0164797 -0.0773984
-0.114763 0.00814784 -0.0659273
0.041278 0.160985 -0.115456
-0.0545021 0.0628461 -0.0264861
0.0457911 0.102524 -0.152213
-0.0527532 0.101074 -0.13379
-0.00905827 0.132048 -0.128185
0.0662826 0.166228 -0.0318687
-0.0709537 0.136581 -0.0302846
-0.0138618 -0.0119851 -0.12395
0.0441134 0.0249228 0.0354399
-0.0626392 0.0961896 -0.0765804
-0.0204397 0.111721 -0.18432
0.0450751 0.102472 -0.153442
0.0105391 0.0633158 -0.0875996
-0.0479614 0.0598078 -0.0248144
-0.0328206 0.114115 -0.170178
-0.0786159 0.141685 -0.0728027
0.0682591 0.0298646 -0.0165715
0.0233982 0.112394 -0.147806
0.0715218 0.134234 -0.0197751
-0.0630918 0.0724749 -0.0317829
-0.0943931 0.0349592 -0.0492731
0.0298977 0.0561859 -0.0721694
0.0231187 0.11386 -0.143762
-0.060843 0.0396448 0.0127692
0.0202423 0.216829 -0.0418162
0.0235875 0.111798 -0.150102
0.109623 -0.0178998 -0.0392301
-0.0491511 0.10289 -0.10624
-0.0558381 0.0961698 -0.0949501
-0.0992053 -0.00648208 0.0685276
-0.0429185 0.063171 -0.0155181
0.0408561 0.157214 -0.117017
-0.0855501 -0.00731961 -0.0850381
0.0286264 0.15098 0.01328
-0.0896029 0.0283155 0.0531987
-0.0156412 0.127612 -0.152305
0.0698493 0.127768 -0.0347569
-0.0482989 0.0633664 -0.0904981
-0.0789896 0.0367593 -0.0269696
-0.0026834 0.169053 0.0333085
-0.119179 -0.0137795 -0.0646072
0.0722243 0.132931 -0.0213096
-0.117213 -0.000598014 -0.0641747
-0.11773 -0.0186205 0.00751279
-0.0480743 0.103689 -0.149075
-0.0493954 0.103745 -0.147027
-0.077969 0.035945 0.0520113
-0.0024305 0.166385 0.0299665
0.0559758 0.104606 -0.0342975
0.00383247 0.213507 0.00319829
0.062399 0.140846 -0.0080273
0.071919 -0.0154991 -0.077072
-0.0567711 0.0962557 -0.0933907
0.109086 -0.0157433 0.0281666
0.0190654 0.151838 0.0139214
-0.117754 -0.0074942 -0.0610345
0.0361938 0.0350634 0.0551083
-0.0463511 0.060646 -0.0215412
0.0705513 0.144831 -0.0352512
-0.0276101 0.0644762 -0.00508825
-0.032367 -0.00767476 -0.118761
0.0465298 0.10462 -0.130232
-0.111359 -0.0102609 -0.0694395
0.0735105 0.128875 -0.0252745
0.00804497 0.131279 -0.128524
-0.101655 -0.00554788 -0.0768134
0.0100839 0.0684129 -0.0984982
-0.0659233 0.125626 -0.0306131
-0.117167 -0.0204136 -0.0016558
0.0297069 0.213874 -0.0425945
-0.0806236 0.0417861 -0.0766384
-0.0321129 0.157694 0.0226596
-0.0246812 0.0476306 0.0510111
0.0460677 0.103051 -0.133791
-0.080292 0.0407936 -0.0551049
-0.113692 0.0114324 -0.0657893
-0.0806617 0.041935 -0.0740512
0.02295 -0.00262732 0.140155
0.0361068 0.124226 -0.12364
-0.0511867 0.198292 -0.0350325
-0.108432 0.0205291 -0.0584957
0.0920974 0.025905 0.0528865
-0.0465151 0.0603153 -0.0222778
-0.101719 -0.00790292 0.06336
-0.114287 -0.0272021 -0.0327563
-0.0712898 -0.0063111 -0.0964098
-0.0230252 0.163827 0.0268641
0.0752131 0.130646 -0.0254114
-0.0744549 0.0375416 0.0517907
0.0548146 0.100906 -0.0922495
-0.0479332 0.0448402 0.0274874
-0.0648122 0.0395703 0.00681682
0.0333744 0.0661492 0.0101501
0.0427821 0.00127291 0.14006
-0.00821936 0.04804 0.0505293
0.0452013 0.102066 -0.113438
-0.0109725 0.131613 -0.128418
0.000497371 0.197991 -0.0399889
-0.10335 0.0114658 0.0607764
-0.00660417 0.113007 -0.186375
-0.0432674 0.200462 -0.061722
0.0364898 0.11773 -0.148263
0.0537845 0.100181 -0.0378875
0.0453521 0.0558288 -0.0522755
-0.0391532 0.124935 -0.154306
-0.0510154 0.104556 -0.146016
0.00852411 0.112009 -0.18199
-0.0254811 0.15697 0.0245213
0.014997 -0.00385299 0.14046
-0.0501784 0.0448538 0.0505853
-0.0273805 -0.00911918 -0.121086
0.0401787 0.155859 -0.118212
-0.0488651 0.118849 -0.14791
0.0235108 0.110323 -0.153732
-0.0316304 0.124265 -0.124184
-0.0535086 0.133118 -0.116561
-0.0529141 0.098723 -0.117624
-0.0469852 0.0632069 -0.0933427
-0.0522125 0.19262 -0.0333974
-0.0778816 0.0374114 -0.0240475
-0.060865 0.156763 -0.0287173
0.00355569 0.158001 0.0191444
0.0154824 0.217761 -0.0413649
0.0510238 0.144984 0.00225997
-0.0734341 -0.00687524 -0.0944904
0.0890495 0.0285441 0.0510626
-0.0626496 0.149798 0.00652045
0.0585254 0.0640327 -0.028215
-0.042382 0.125311 -0.145189
0.0535915 0.100584 -0.0370363
0.0122495 0.059302 -0.082564
-0.0669388 0.0399166 0.00366312
