ply
format ascii 1.0
element vertex 197
property float x
property float y
property float z
end_header
0.335248 0.974789 -0.0383286
0.373127 1.12907 0.00995704
0.36026 1.02508 -0.0327376
0.329224 0.96791 -0.0345712
0.377272 1.11687 -0.00297603
0.365679 1.08949 -0.00823957
0.381754 1.11148 0.000297815
0.372354 1.097 -0.00533459
0.342004 1.1714 0.0679868
0.369161 1.14478 0.0182778
0.382303 1.11294 0.0015738
0.314658 0.949524 -0.0196711
0.318175 1.1809 0.117025
0.358606 1.01992 -0.0349488
0.301687 0.939946 -0.000755012
0.272883 1.17476 0.150924
0.272357 1.17541 0.149799
0.280417 0.92707 0.00925815
0.298309 0.938563 -2.68221e-06
0.364682 1.16704 0.042707
0.364323 1.16791 0.0442752
0.361673 1.07881 -0.0137115
0.365572 1.16581 0.0418718
0.333015 0.972529 -0.0373938
0.273039 1.17299 0.152307
0.36174 1.1692 0.0521616
0.360487 1.16961 0.0538939
0.313107 0.946808 -0.0153352
0.360875 1.16952 0.0533358
0.354107 1.17024 0.0562633
0.362344 1.07614 -0.014189
0.271658 1.17073 0.153423
0.368228 1.16011 0.0285682
0.353307 1.17016 0.0564771
0.353027 1.16989 0.0573771
0.366535 1.16369 0.0394592
0.368969 1.15081 0.0230746
0.352283 1.1711 0.058341
0.366143 1.16436 0.0399833
0.367999 1.16291 0.0381788
0.380123 1.10786 -0.00103608
0.201554 1.07157 0.187936
0.210334 1.08516 0.186406
0.375286 1.12281 0.00581569
0.261052 0.92645 0.031146
0.32673 0.964603 -0.0326765
0.37588 1.12075 0.00383982
0.308904 0.944385 -0.00947931
0.204571 1.07686 0.188053
0.273874 0.925519 0.014968
0.381954 1.11123 0.000780582
0.37849 1.10579 -0.00276282
0.202291 1.07351 0.188168
0.212663 1.08922 0.18515
0.252018 1.14073 0.164546
0.211624 1.08809 0.18538
0.362203 1.08438 -0.0108183
0.213891 1.09022 0.184958
0.210995 1.08667 0.185939
0.20318 1.07517 0.188223
0.373238 1.09874 -0.00524738
0.198938 1.05276 0.176741
0.22742 1.11759 0.187811
0.225636 1.11125 0.188049
0.225725 1.1134 0.188036
0.228648 1.11929 0.187532
0.366609 1.09074 -0.00782281
0.185637 0.964979 0.155534
0.186913 0.963498 0.153504
0.194494 0.957579 0.145947
0.191926 1.0417 0.175907
0.191563 1.04043 0.175687
0.368 1.16284 0.0370861
0.186556 1.00371 0.174244
0.191661 1.04012 0.175599
0.187625 0.993058 0.168917
0.199394 0.946723 0.133982
0.186523 1.00151 0.173293
0.185472 0.970506 0.16277
0.198876 0.948839 0.136668
0.198105 0.950212 0.137929
0.212741 0.922618 0.103433
0.369852 1.13953 0.0147784
0.372147 1.13226 0.0115568
0.204795 0.934693 0.120563
0.201019 0.943539 0.130755
0.362116 1.16908 0.0513492
0.287689 0.932813 0.00331953
0.2059 0.9309 0.115417
0.361795 1.07201 -0.015739
0.247503 0.926535 0.0465339
0.254167 0.926521 0.0384616
0.197473 0.954881 0.143148
0.263401 0.926126 0.026953
0.318643 1.18568 0.111243
0.361202 1.16948 0.0528495
0.271747 0.925444 0.0175399
0.294861 0.936473 0.00174856
0.311161 0.945358 -0.0122205
0.37129 1.09531 -0.00562885
0.369872 1.09384 -0.00638074
0.201714 0.942335 0.129299
0.366721 1.16311 0.0381223
0.278454 0.925995 0.0114429
0.197899 0.952786 0.140753
0.197734 0.953915 0.142018
0.22471 1.10933 0.18746
0.276025 0.925783 0.0129839
0.209434 0.926318 0.109401
0.321807 0.958241 -0.0288001
0.206772 0.929289 0.113161
0.207705 0.92797 0.111317
0.374462 1.12504 0.00736189
0.351607 1.17249 0.0596753
0.191626 1.04111 0.175871
0.215818 0.921123 0.101592
0.368857 1.14735 0.0205035
0.381856 1.11044 0.00126079
0.382073 1.11115 0.00122178
0.381241 1.11135 -0.00019592
0.376601 1.11851 0.000592202
0.188217 0.961979 0.151323
0.369472 1.14834 0.0222771
0.379326 1.10725 -0.00201708
0.367632 1.16361 0.0359425
0.377157 1.11683 -0.000837475
0.18802 0.988821 0.168439
0.368493 1.15336 0.0239482
0.368477 1.16316 0.0338015
0.374737 1.10095 -0.00500193
0.352571 1.17049 0.0577442
0.376473 1.10301 -0.00399613
0.230194 1.12327 0.185432
0.290685 0.934395 0.00256103
0.218058 0.919075 0.0984697
0.368293 1.16323 0.0352733
0.351266 1.17338 0.0609013
0.187491 0.995925 0.170244
0.193628 0.958421 0.147041
0.198982 1.05541 0.17618
0.184779 0.966647 0.157606
0.38214 1.11223 0.00137931
0.223823 0.919693 0.0694619
0.352805 1.17014 0.0575665
0.19679 0.955775 0.14401
0.362028 1.16966 0.050828
0.351979 1.17179 0.0591349
0.219152 0.917128 0.0945394
0.249647 1.13935 0.165148
0.381427 1.10994 0.000884473
0.368454 1.15772 0.0271936
0.232394 0.928038 0.0741161
0.368691 1.15528 0.0257105
0.218738 0.917755 0.0959789
0.317867 1.17826 0.11789
0.347663 1.17157 0.0653926
0.224811 0.918403 0.0702695
0.201161 1.06304 0.177323
0.195094 0.956813 0.144925
0.370271 1.13766 0.0135718
0.368321 1.09247 -0.00714511
0.217279 0.920288 0.100826
0.352939 1.00642 -0.0402205
0.353123 1.17007 0.0568156
0.375704 1.10208 -0.00453615
0.368207 1.16254 0.0312709
0.224165 0.919937 0.0699112
0.1998 1.05037 0.177763
0.224041 0.920157 0.0703478
0.187427 1.00494 0.174999
0.187093 0.998421 0.171505
0.19148 1.03959 0.175401
0.373545 1.12737 0.00876355
0.211656 0.923778 0.105352
0.217919 0.919578 0.0996025
0.369664 1.14176 0.0163825
0.318768 1.18216 0.116093
0.27332 1.17633 0.148592
0.214198 0.921869 0.102309
0.199322 0.947638 0.135246
0.232799 0.928298 0.0726912
0.223935 0.919594 0.0696197
0.218178 0.918439 0.0971286
0.368478 1.16116 0.0298431
0.38225 1.11162 0.0014472
0.257977 0.926646 0.034923
0.3668 1.16321 0.0378296
0.199215 1.05734 0.17584
0.37747 1.10427 -0.00337869
0.268763 0.925539 0.0204221
0.195487 0.956342 0.144202
0.284378 0.930328 0.00510931
0.188219 0.99058 0.16841
0.210699 0.924932 0.107291
0.317286 0.95228 -0.0231234
0.266186 0.925657 0.0236149
0.224435 0.919162 0.0698914
