ply
format ascii 1.0
element vertex 1586
property float x
property float y
property float z
end_header
0.0584151 0.12968 -0.128637
0.12669 -0.094126 -0.0400204
0.0122991 0.213383 0.00867491
0.0635247 0.1755 0.0188634
-0.0215415 0.0863012 0.087391
-0.0982567 0.0587271 -0.0188996
0.070836 0.159513 0.0128514
-0.111106 0.0086629 -0.0715241
0.0133985 0.105532 0.134993
-0.0280645 0.0742113 0.0131806
0.063212 0.208886 -0.0311295
-0.151915 -0.0513599 0.0149206
0.113499 -0.0896792 0.0640363
0.0284893 0.21364 -0.0645172
0.0582418 0.0251847 -0.127704
-0.0638484 0.109516 -0.153679
0.128963 -0.0904779 -0.0128307
-0.0959427 0.176021 -0.066646
-0.0361677 0.0488862 -0.145838
0.0753891 -0.127102 -0.0424909
0.0499669 0.179328 -0.115372
-0.0950581 0.176617 -0.0633268
-0.0354621 0.0684882 0.0610027
0.1463 -0.0765433 -0.0115545
-0.0671144 0.146915 -0.119865
0.0644742 0.204099 -0.021556
-0.101596 0.0359758 0.0382971
-0.0439119 0.160793 -0.126377
0.0643169 0.20485 -0.0226708
0.105936 -0.0438083 0.121935
-0.142008 -0.0511026 -0.113779
-0.00157209 0.112211 0.124975
0.017856 0.146632 -0.134287
-0.0687074 0.0614015 0.0565609
0.096619 0.0146559 0.106965
-0.0193036 0.217446 -0.052219
-0.137075 -0.0438634 -0.00230288
-0.136835 -0.0729642 0.029622
-0.0759491 0.0662656 0.0935592
0.0574734 0.067465 -0.0644984
-0.0183353 0.219442 -0.0323424
0.0207211 0.0645675 0.0779916
0.0432448 0.0751172 0.0580992
-0.066407 0.110134 -0.151545
0.0693068 0.0629591 0.0215864
-0.0825371 0.0842016 0.00815085
0.0564337 0.110849 -0.146427
0.053574 0.17438 -0.114902
0.0340137 0.0631915 0.155869
0.0636088 0.208587 -0.0296644
-0.0411331 0.0445618 0.164136
0.0694135 0.133358 0.0190418
-0.0389617 0.065115 0.0416023
0.0702664 -0.0466239 0.14141
0.0631989 0.137517 0.0350178
0.114466 -0.0964523 -0.0786867
0.0596633 0.169261 -0.116171
-0.10478 0.0275013 0.0245587
0.0628096 0.0733917 0.0103952
-0.0702665 0.185779 -0.102726
-0.0874737 0.0580869 -0.00192964
0.0962113 -0.107125 0.0470888
-0.0664759 -0.105212 -0.0901716
0.0668921 0.0788114 0.0122593
0.0322316 0.0753067 0.0178218
-0.0809224 0.145106 -0.117509
0.056524 0.127819 0.0436045
-0.0239843 0.0827228 0.148893
-0.0731664 0.114661 -0.200895
0.023327 -0.12003 0.0575525
-0.103543 -0.0120758 0.155124
-0.0269282 0.217856 -0.0309523
0.0421851 0.135594 -0.175765
0.114105 -0.108748 -0.0762728
0.0252073 -0.119134 -0.00734671
0.0294982 0.060106 0.0305287
-0.0812342 0.087373 0.0102774
-0.109698 0.01234 0.069144
0.0310117 0.130475 -0.198452
-0.0697201 0.0926468 0.0203242
-0.102865 0.0452681 -0.0859557
-0.12655 -0.0275845 0.130155
0.0622408 0.127112 0.0412974
0.018564 0.0827783 0.0848382
-0.0414546 0.161221 -0.12667
0.0516933 0.206402 -0.0744194
0.0521684 0.205448 -0.0750109
-0.11161 -0.00909799 -0.100361
0.0608537 0.0573158 -0.0337572
-0.0730026 0.131884 -0.141902
0.0905722 -0.0391304 0.128416
0.0608374 0.0564213 -0.036322
0.0655006 0.112996 0.0231207
0.0285384 0.128611 -0.147122
-0.0187343 0.0728481 0.0139341
0.00785261 0.0726503 0.0171653
0.0602574 0.0752746 -0.0415045
0.0691564 0.136043 0.0198344
-0.0211089 0.0897372 0.151017
-0.0159177 0.0639502 0.0417205
-0.051092 -0.109547 0.0112814
0.00287692 0.150201 -0.133908
0.0231283 0.126697 -0.207167
-0.0130717 0.0667753 0.0613144
-0.0292096 0.0678912 0.0614203
0.035224 0.199524 -0.100396
-0.16103 -0.0804638 -0.0724367
0.0650321 0.124246 0.0309068
-0.0891684 0.194939 -0.0891924
0.00383333 0.0725957 0.0170475
-0.0745415 0.0976043 -0.00439791
0.145163 -0.0630923 -0.0324504
-0.131877 -0.0333846 0.0719276
0.0471787 0.157203 0.0354141
0.091743 -0.0563542 0.119198
-0.082547 -0.103933 -0.0872396
0.0336466 0.0694117 0.076382
-0.0150466 0.154095 -0.131178
0.0600263 0.163031 -0.118386
-0.0307989 0.047151 -0.149901
0.109447 -0.0224854 0.104308
-0.067607 0.125501 -0.128685
-0.142007 -0.0431632 0.0334545
-0.0437134 0.0250702 0.167799
-0.101177 0.0449074 -0.00217609
-0.0471945 0.114875 -0.165867
0.0700904 -0.0328333 -0.15606
-0.113273 0.099958 -0.0897515
-0.0359271 0.0747267 0.0123342
0.0446519 0.0730663 -0.154999
0.0357095 0.0605256 0.156361
-0.076825 0.0627454 -0.0489837
-0.10713 -0.093772 -0.0996017
0.0205641 0.0818982 0.140889
0.0783666 0.0494955 0.112194
-0.0330244 0.0479195 -0.148165
0.054407 0.193599 -0.0956022
0.0164781 0.198258 0.0212858
0.0591533 0.0705127 -0.0554146
0.0312925 0.127734 -0.147336
0.00263285 0.194338 -0.109975
0.0377632 0.124827 -0.147083
0.039742 0.159398 -0.138994
0.0757645 -0.0553231 -0.155063
-0.0609576 0.108646 0.0161954
-0.0682742 0.146069 -0.119503
-0.0610034 0.132047 -0.131426
-0.0722721 0.200674 -0.0905613
-0.0852569 -0.0255569 0.168396
0.0518609 0.14183 -0.168363
0.0249568 0.106903 -0.204969
-0.103815 0.0365726 0.0282707
-0.108447 0.0271762 -0.0888684
0.0220018 0.103617 -0.20646
-0.0634745 0.10174 0.0347956
0.0378111 0.104216 -0.193062
-0.0573215 0.103571 -0.157327
0.0646849 0.0643025 -0.00588906
-0.0473307 0.138543 -0.135261
-0.0622075 0.106774 0.0134027
-0.120259 -0.0861177 -0.0878643
0.105826 -0.0551911 0.116182
0.00850131 0.166795 -0.13713
-0.0675314 0.0963649 0.0258062
0.0974755 -0.0555894 0.117326
-0.0706805 0.102752 -0.191491
-0.0818756 0.0358142 0.140214
0.0697188 0.154225 0.0149455
-0.0645176 0.171451 0.0260612
-0.0730988 0.0318544 -0.0675697
0.0257896 0.143257 -0.133783
0.045643 0.121894 -0.173039
0.0641064 0.205725 -0.024069
-0.10405 0.0431338 -0.0857278
-0.0659325 0.0779704 -0.167623
0.00474538 -0.111491 -0.117061
-0.109584 0.00821153 -0.0744029
0.0449685 0.121754 -0.174777
0.0201792 -0.118652 -0.00603365
-0.0888741 0.144358 -0.108499
0.038538 0.0503367 -0.115582
-0.0736836 0.0516116 -0.0197952
0.119983 -0.0971103 -0.0625937
-0.0130587 0.0675906 0.0804835
-0.0134934 0.112669 0.125999
0.0500214 0.0353166 -0.0935823
0.123016 -0.0895922 0.0584346
-0.0980393 0.0371083 0.0458459
0.0490007 0.180353 -0.115281
-0.00489418 0.138045 -0.145173
-0.00400698 0.150984 -0.1331
-0.00794297 0.139247 -0.144406
-0.0886785 0.179034 -0.0999681
-0.0758861 0.110048 -0.13106
0.0643641 0.199864 -0.0163897
0.0543489 0.20724 -0.0101417
-0.0591061 0.150816 -0.122293
0.00445923 0.198695 0.0236344
-0.0611839 0.054817 0.138042
-0.0729875 0.062972 0.000509996
-0.0866725 0.00965028 0.154921
0.0156793 0.0894507 0.137798
-0.0648299 0.109784 -0.152658
-0.087572 0.0245779 0.105802
0.0154014 0.0907349 0.136479
-0.0992224 -0.0862233 0.0674867
0.0338506 0.16113 -0.138998
0.0467836 0.174591 -0.128261
0.0944122 -0.0558044 0.118061
-0.0646474 0.103508 0.00828917
0.0234439 0.0596275 0.0310514
0.00306682 0.136248 -0.146524
0.0594631 -0.0495606 0.1487
0.00134567 0.111771 0.125096
0.0428955 0.158022 -0.138072
-0.106389 0.00449098 -0.0819757
0.0222459 0.215094 -0.0619901
-0.105493 0.0250015 -0.0943932
0.0114374 0.166517 -0.138027
0.0192454 0.184059 -0.131273
-0.0690891 0.210725 -0.0468798
-0.00599802 0.184875 -0.12761
0.0230427 0.18289 -0.131565
0.0158635 0.166373 -0.139123
0.00890494 0.0834684 0.0854405
0.130718 -0.00479895 -0.0228261
-0.0344195 0.162306 -0.127793
-0.092116 0.177643 -0.0998113
-0.0323033 0.157656 -0.12792
0.0442974 0.175909 -0.129237
0.0181155 0.213404 0.00793363
-0.0621483 0.0646416 -0.116467
-0.0749997 0.0445938 -0.0424071
-0.0710848 0.103343 -0.192508
-0.00821937 0.197651 -0.110635
-0.0484853 0.196214 -0.106618
0.0439647 0.214109 -0.0488476
0.0533231 0.187976 -0.100473
0.0699751 0.155869 0.0142846
0.0209754 0.213496 0.00776287
-0.0805042 0.210239 -0.0484675
0.0532836 0.174696 -0.115012
0.117269 -0.0489533 0.104482
0.0394965 0.215944 -0.0469768
-0.108307 0.026733 -0.0880897
-0.0725699 -0.0518558 0.167646
-0.100025 0.0104458 0.0866102
-0.102445 0.0358566 0.0337105
-0.0365394 0.174716 0.0401661
-0.0456772 0.139072 -0.135633
-0.0312668 0.103298 -0.200789
-0.0791201 0.113792 -0.135482
-0.0748513 0.0476081 -0.033203
0.0491284 0.0502385 -0.148702
0.03374 0.0296681 -0.15985
-0.0729229 0.0330336 -0.0651971
0.0387077 0.0288005 -0.15817
0.0176158 0.0939108 0.118672
-0.113043 -0.0702337 0.0882276
0.0497417 0.0485347 -0.146143
-0.0499989 0.213334 -0.0469393
-0.0571393 0.117216 0.0268912
-0.0937267 0.193337 -0.0880935
0.0400218 0.105912 0.0783696
-0.0168792 0.0416826 -0.158573
-0.0763166 0.0634486 -0.0462859
-0.0921188 0.200044 -0.0361215
0.0488371 -0.117523 0.0540442
0.0542093 0.2029 -0.0778178
-0.0968512 0.173734 -0.0742372
0.0543802 0.0408803 -0.0783761
0.119821 -0.10536 0.00756694
-0.144606 -0.0643328 -0.105936
-0.0750804 0.0462679 -0.0377833
-0.0965064 0.174423 -0.072552
-0.107476 0.0269891 -0.0794487
-0.0312448 0.0961937 0.13681
0.0631788 0.208859 -0.0317941
-0.0723274 0.121314 -0.172842
-0.0745633 0.0407664 -0.051383
-0.0940515 0.177258 -0.0587761
-0.0621681 0.212313 -0.0463706
-0.0455834 0.178349 -0.119112
-0.0482515 0.178103 -0.118376
-0.0164595 0.217446 -0.0529855
-0.0913337 0.183218 -0.0118462
0.0233146 0.0780903 0.144886
-0.112969 0.0913422 -0.071705
0.0695192 0.145948 0.0181433
0.0554642 0.141626 -0.158669
-0.0455081 0.154118 -0.124435
-0.104106 0.00425231 0.0865601
0.0322869 0.0245698 0.163655
-0.00500634 0.20965 -0.0963496
-0.0938908 -0.041725 0.16108
-0.0659236 0.173937 -0.116416
-0.116917 0.0201426 -0.0820859
-0.0721971 0.0961507 -0.190227
-0.0205711 0.0939211 0.152316
0.10489 -0.115772 -0.0778919
-0.0689029 0.173802 -0.116577
-0.0557452 0.0850275 0.10662
-0.12647 -0.0840663 -0.0779238
-0.0979517 0.182345 -0.0618956
0.0702084 -0.120713 -0.0217793
0.144376 -0.0487257 -0.0346664
-0.075387 0.108367 -0.136587
0.0817021 0.0413355 0.0849592
-0.0910654 0.194524 -0.089303
-0.0792918 0.134738 -0.13201
0.105579 -0.115761 -0.0766555
-0.0815765 0.0627196 0.0894999
-0.04677 -0.00774622 -0.131171
-0.100342 -0.0958249 -0.102497
0.0927623 -0.0865727 -0.13151
-0.0709144 0.105344 -0.194059
-0.10309 0.0247018 0.0378002
0.060962 0.163038 -0.121092
-0.0751954 0.106554 -0.145174
0.026623 0.0599969 0.0309263
-0.0225314 0.182774 -0.124702
0.0126962 0.0434969 0.167732
0.0418368 0.120899 -0.18443
-0.114872 0.0272959 -0.0499423
-0.0343939 0.137847 0.0564591
0.0437627 0.120869 -0.180225
0.00177823 0.098508 -0.206497
0.0612477 0.220558 -0.0163483
-0.0710958 0.0703262 0.0978116
-0.119722 -0.00314251 -0.0506221
-0.000863092 0.117832 -0.210926
-0.0944882 0.158161 -0.1091
-0.0960567 0.16782 -0.0861686
0.039265 0.114522 -0.182568
-0.116849 0.00562406 0.0529978
0.040977 0.120864 -0.186389
-0.0291143 0.155718 0.0413271
-0.0463322 0.12019 0.0486759
0.0696638 -0.100254 -0.127815
-0.0519972 0.0987653 -0.162756
-0.0514735 0.0976927 -0.16369
-0.0285294 0.163491 -0.129308
0.0259582 0.0926761 0.105273
-0.0797089 -0.0283707 0.170302
0.0299927 -0.0144449 -0.166693
-0.0978346 0.0189391 0.141169
0.0333825 -0.0149826 -0.168097
0.0388775 -0.0335549 -0.161357
-0.0837971 0.0830512 0.00693939
0.00424395 -0.0296866 -0.148645
-0.0257893 0.201809 -0.11
-0.00960111 0.0946768 -0.202532
-0.118007 0.0190213 -0.0814168
-0.0690547 0.0635307 -0.103345
0.0297997 -0.12031 0.0571626
0.053278 0.188252 -0.100497
-0.0407076 0.108918 -0.181842
-0.0121057 -0.124483 -0.016862
-0.121724 -0.0899773 -0.0592803
-0.0638342 0.129535 -0.13035
-0.0416109 0.216939 -0.0281901
0.0198134 0.198343 0.020983
0.0564999 0.14041 -0.154369
-0.123112 -0.0309179 -0.0983339
-0.0759509 0.0581974 -0.0604408
-0.038477 0.19323 0.0233119
0.0650923 0.123004 0.0303023
-0.0760887 0.0592801 -0.0580335
-0.148587 -0.0597777 -0.0217159
-0.0377443 0.0953613 0.126171
-0.00469506 -0.00996582 -0.151929
-0.0304356 0.0239822 0.173562
-0.0137313 0.212964 0.0116849
0.0791224 -0.0886065 -0.149312
-0.111597 -0.0283615 -0.0926669
0.00249366 0.219114 -0.0364297
-0.0730423 0.121039 -0.167285
-0.098076 0.0156468 -0.084762
0.0406053 0.0864783 -0.176159
0.0105991 0.159368 0.0367772
-0.0391843 0.0501481 -0.143057
-0.0602425 0.0833121 -0.149366
-0.0773213 0.0937138 -0.00745931
-0.116595 -0.0919003 -0.0683035
-0.128638 -0.0134572 -0.131388
-0.0682074 0.124519 -0.128198
0.112499 -0.112883 -0.0509398
0.0572205 0.0667531 -0.0665356
0.0604812 0.0758823 -0.0395534
0.010583 0.102245 0.0434178
0.0590497 0.132176 -0.128656
0.0505548 0.131132 -0.133402
0.0277652 0.100914 0.0840926
-0.0449005 -0.110362 0.00960587
0.0696128 0.130584 0.0185085
0.0591431 0.134529 -0.128379
0.060344 0.0110165 -0.161704
-0.0935123 0.177326 -0.0559735
0.0619454 -0.0673424 0.139888
-0.0745643 0.106147 -0.147481
0.102473 -0.116041 -0.0835422
0.116217 -0.0800762 0.0767268
0.000103277 -0.118146 -0.00116783
0.0203919 0.0946397 0.112238
0.108141 -0.0371107 -0.0951213
0.0615792 0.0794293 -0.023785
-0.0908035 0.203394 -0.0301302
0.119419 -0.109408 -0.023952
-0.023237 0.0444092 -0.154939
-0.160051 -0.0706079 -0.0414091
-0.0172657 0.199682 -0.110216
-0.020703 0.201559 -0.11037
0.0360707 0.0851996 -0.203166
0.0999203 0.0143433 0.0350243
-0.0533971 0.122412 -0.157409
-0.0666466 0.0981085 0.0284342
-0.0686674 0.0639318 0.00127513
-0.0583419 0.081698 0.108093
0.0494899 0.0440784 0.149428
-0.0727436 0.0687709 0.096397
-0.0941152 0.156587 -0.100346
0.0394645 0.0883337 0.0882625
-0.118839 -0.0834422 0.0260631
-0.0512335 0.120747 -0.160145
-0.0696658 0.110826 -0.14837
-0.0888756 0.161975 -0.109812
-0.0606263 0.213772 -0.0264004
0.118795 -0.109661 -0.0259996
0.0234794 0.0976084 0.0867612
-0.0658987 0.0950633 -0.178008
-0.0695858 0.0843123 -0.178752
-0.065211 0.0941511 -0.174939
0.0382429 0.0894932 0.0911207
0.0167918 0.0587488 0.030643
-0.0655922 0.0947192 -0.176329
-0.127472 -0.0108881 -0.131095
0.0275491 0.108289 -0.200656
0.0516273 0.0387001 -0.0851048
-0.0740884 0.105016 -0.179337
0.0806193 -0.0435839 0.135624
-0.0658567 0.0655279 -0.108944
-0.0432867 -0.0613212 0.171499
-0.123474 -0.0310479 -0.0735977
-0.103729 0.00536089 -0.0828879
-0.142436 -0.0654418 -0.11731
-0.0747313 0.112023 -0.143509
0.0708029 0.12213 0.0167263
-0.00372005 0.0873494 0.037065
-0.0975014 0.193357 -0.0781346
-0.111676 0.0072322 -0.0924009
-0.0475287 0.158265 0.0252769
-0.0285626 0.0434691 0.169469
-0.0182387 0.112703 0.126555
-0.111104 0.00735594 -0.0928463
0.0622082 -0.00290409 -0.16762
0.0735448 0.0966878 -1.49533e-05
0.050845 0.0572427 -0.0925587
0.144443 -0.054627 -0.033958
-0.00145826 0.137088 -0.145497
0.0546456 0.21206 -0.0526058
-0.0962849 0.169865 -0.0817132
-0.0802941 0.168071 -0.113369
-0.0744334 0.0387894 -0.0548972
-0.0311193 0.0646926 -0.159503
-0.081292 0.182431 -0.101883
0.100407 -0.0605463 -0.112996
-0.0870332 0.163545 -0.11048
-0.0960746 0.164394 -0.0932006
-0.0960502 0.163297 -0.0946284
-0.00361418 0.0660721 0.0800501
-0.113237 0.0842275 -0.0981166
-0.0379525 -0.0268085 -0.129294
-0.0530886 0.0561487 0.0211205
-0.126815 -0.043977 0.144827
-0.0413996 0.0587057 0.0246966
-0.0305847 0.175647 0.0405163
0.0232123 -0.109744 0.0747042
-0.0866302 0.0540932 0.0412963
-0.0928618 0.197704 -0.0398654
-0.072958 -0.0960465 0.063843
-0.0976132 0.196412 -0.076109
-0.0641182 0.0751258 -0.159906
-0.121956 -0.0902256 -0.0592239
-0.0726606 0.0983068 -0.00306843
0.064117 0.206637 -0.0253002
0.0551166 0.193771 0.00635932
-0.0562038 0.120171 0.0291779
0.0599094 0.168645 -0.119084
0.0599959 0.166128 -0.117202
-0.048764 0.1185 -0.162442
-0.104455 -0.0358173 0.156554
0.0561796 0.170484 -0.124221
-0.15296 -0.0769791 0.0155389
-0.157205 -0.0717344 0.0117208
0.0797485 -0.0641324 -0.152098
-0.132678 -0.0836912 -0.0591614
0.0262854 0.15951 0.0358743
0.0809392 -0.00228896 0.155633
-0.137285 -0.0393424 -0.115501
-0.0609512 0.107496 -0.155234
-0.0610401 0.0720033 -0.150557
-0.062433 0.108922 -0.154759
0.0695745 0.15247 0.0156802
-0.0177576 0.142351 -0.140927
0.0458467 0.134525 -0.133643
0.0633185 0.0712294 0.0832492
0.0648655 0.194238 -0.0105848
0.0648716 0.195054 -0.0114045
-0.0883473 0.0282158 0.14025
-0.0426411 0.192687 0.0228462
-0.0754933 0.107226 -0.141305
-0.126814 -0.0840024 -0.0776757
-0.0479349 0.206183 0.0111611
-0.142655 -0.0529355 -0.128379
0.0642807 0.167479 0.0295417
-0.049798 0.143126 0.048773
0.0259657 0.128051 -0.203294
-0.108031 0.0261413 -0.0921121
-0.0872597 0.0346677 -0.0861896
-0.0953036 -0.075918 0.0841733
-0.082042 0.167102 -0.112867
-0.126073 -0.0128126 -0.11143
0.0611666 0.0608604 -0.0224805
0.0121596 0.120623 -0.210739
-0.0938053 0.176969 -0.0599326
0.0712903 0.12109 0.0162732
0.110938 -0.0561312 -0.096576
-0.0413138 0.215262 -0.0481175
0.0721557 0.00914294 0.160722
-0.130874 -0.0727324 -0.0757942
0.0674578 0.0963675 0.0118115
-0.0852668 0.180482 -0.100287
-0.0840094 -0.110083 0.000959159
0.0582391 0.223499 -0.0312572
-0.0391804 0.215595 -0.0485989
0.0374459 0.115989 -0.205087
0.0662412 -0.00833494 -0.149407
0.0932472 -0.0270853 -0.109614
-0.0881841 0.0534471 0.0392953
-0.0856202 0.210693 -0.0291377
-0.014326 -0.103613 0.0755912
-0.0895435 0.052657 0.0365037
-0.0557928 0.151784 -0.122889
-0.141564 -0.0465936 -0.131542
0.119971 -0.105942 0.00427908
-0.104625 -0.098537 -0.0797185
-0.0305677 0.217435 -0.0303366
0.0687214 -0.0654151 0.135115
-0.140422 -0.0750945 -0.0907815
0.0326106 0.0681851 0.0768717
-0.0755772 0.0459031 -0.0837055
-0.0716118 0.107736 -0.198009
0.0591636 0.202694 -0.0578732
-0.0632192 0.0647595 -0.112179
-0.0287288 0.209978 0.0112122
-0.0564733 -0.101885 -0.113374
-0.100756 0.0494267 -0.086347
0.0666599 0.175359 -0.000645517
-0.0936707 0.195396 -0.0435755
0.00881848 0.103168 0.106738
0.0363204 0.0829751 -0.201204
-0.0248836 0.0818799 0.148996
0.0194338 0.0944956 0.113182
-0.0359212 0.0615627 0.15059
-0.030357 0.0830044 -0.210281
0.0721124 0.113979 0.0126563
-0.0521294 0.139409 0.0496062
-0.0154487 0.219426 -0.0331094
0.0180433 0.0941923 0.115964
-0.0958138 0.202293 -0.0690732
0.0671885 0.0672656 0.117934
-0.0624946 0.0648783 -0.115963
-0.0986491 0.0368175 0.0446399
-0.0486547 0.172586 0.0213715
-0.0674508 0.0649246 -0.105723
-0.00262916 0.166921 -0.135753
0.00100903 0.116959 0.0453019
0.0369627 0.0290591 -0.159279
-0.0194708 0.142728 -0.140932
0.0794233 -0.0977631 -0.129779
-0.0955647 0.165529 -0.0908975
-0.0180237 0.212255 0.0113702
0.0665133 0.174514 -0.000375384
-0.0753045 0.0686221 -0.0301882
-0.0245956 0.210838 0.0108953
0.0256792 0.0732532 0.147039
0.0489994 0.052445 0.148402
0.0545074 0.125944 -0.132787
-0.0434361 0.0687064 -0.150121
-0.0367417 0.0664251 -0.155433
-0.0563608 0.102639 -0.157905
0.0286499 0.101602 0.0837252
-0.0747542 0.0690548 -0.027677
0.0127092 0.109923 0.131524
-0.0864755 0.0558183 0.0445792
-0.0626548 0.0825937 -0.122366
0.0221202 0.0790228 0.143537
-0.0496867 0.0940676 -0.167896
-0.0832876 0.211016 -0.0286774
0.0220059 0.0943636 0.110351
0.0503322 0.0564236 -0.0945538
0.0723444 0.112791 0.012044
0.0723164 0.109293 0.0104175
-0.0377078 0.0903262 0.135968
-0.0379633 0.0687042 0.0607498
0.0636308 0.13144 0.0342751
0.0360751 -0.109055 -0.12568
0.0546121 0.0420957 -0.13731
-0.0451061 0.106333 0.0445763
0.0786505 0.0462957 0.114499
0.109977 -0.109289 -0.0898898
-0.00145537 0.0658314 0.0797924
-0.0819702 -0.027137 -0.10913
-0.039363 0.0856575 -0.192329
-0.0500619 0.119519 -0.161605
-0.0169206 0.091087 -0.200443
-0.0206188 0.0930194 0.152015
0.0771033 -0.0633323 0.130349
0.00502774 0.159354 0.0386258
-0.0744222 0.0430175 -0.0465118
0.0960286 -0.0340535 -0.110412
0.0589452 -0.0956001 -0.14596
-0.025243 0.109413 0.124621
-0.0689468 0.0712406 0.0882724
0.060055 0.073604 -0.046527
-0.0703941 0.144773 -0.119185
-0.0651763 0.0788441 0.0947401
-0.00510846 0.198519 0.0246745
0.0039856 0.084085 0.0858915
-0.0463475 0.0497028 0.151438
0.0877394 0.00111984 0.146686
-0.0442415 0.0521252 0.151237
-0.107617 0.0312492 -0.013403
0.109079 -0.046359 0.108161
0.0395586 0.0442625 0.156723
0.104955 0.0229699 -0.0267947
-0.0735805 0.0980697 -0.00355483
-0.0710196 0.0925446 0.0189761
-0.0407683 0.0656913 0.0833992
-0.0110262 0.158395 0.0412841
0.0198776 -0.013196 -0.16313
-0.0453093 0.0726998 0.0873958
-0.0319077 0.0678524 0.0814817
-0.0697838 0.064405 0.0862807
0.0485422 0.132971 -0.13364
0.0511169 0.0378216 -0.0872496
-0.0739809 0.0677114 0.0952497
-0.0365788 -0.0630431 0.171981
0.0278769 -0.0141673 -0.16599
-0.143716 -0.0559332 -0.111663
-0.128728 -0.0249272 0.0715531
0.0231476 0.107172 -0.206709
-0.0644117 0.0481909 0.104798
0.0563202 0.039803 -0.135238
0.0206038 0.0944806 0.0891468
0.0320826 0.0911024 0.0989693
0.0994897 -0.054174 -0.112423
-0.044152 0.065236 0.0412586
0.0279566 0.0832078 0.0838798
0.0690687 0.135099 0.01961
-0.108254 0.0200953 -0.0180295
0.0407831 0.17738 -0.130301
-0.0105278 -0.116139 0.00124562
-0.00451453 0.0558556 -0.170314
0.0367713 0.0773829 -0.195617
0.0326668 0.0605614 0.0307163
-0.0685468 0.0976835 -0.000193572
-0.0615125 -0.0361084 0.175405
-0.0990466 -0.0392162 0.159704
0.0343273 0.179121 -0.130274
-0.0439458 0.0684361 0.0604722
-0.0381427 0.0667402 0.0663243
0.0360063 0.09054 0.0940834
-0.00784008 -0.00962865 -0.150546
-0.0754583 0.049066 -0.0288364
-0.144052 -0.0582651 -0.110197
-0.0649272 0.0658889 -0.11084
-0.0624517 0.0279199 0.153068
0.0258324 0.107256 -0.203331
-0.0550249 0.131762 0.0331419
-0.0314737 0.0676259 0.14992
0.129096 -0.0926287 -0.0279466
-0.0634924 0.0624257 0.0718175
-0.011143 0.184447 -0.12668
0.00974883 -0.0303517 -0.15146
-0.0953908 0.19145 -0.0499444
-0.0796803 0.0485443 0.087765
0.0172718 0.0940109 0.120392
-0.0140164 0.217639 -0.0534609
-0.0962436 0.163857 -0.0940596
0.0566539 0.0644966 -0.0725098
-0.113135 -0.0230227 0.146521
0.0587707 0.203414 -0.0571305
-0.0763271 0.0474838 0.0926068
0.12859 -0.092905 -0.0302276
0.102895 -0.113151 -0.0992936
-0.0780547 -0.103971 -0.0879061
-0.0930852 0.154389 -0.101699
0.018617 0.0942773 0.114837
-0.145614 -0.0878183 -0.0616973
-0.0852052 0.0333198 0.088053
0.0295273 -0.110024 0.074313
0.112288 -0.109124 -0.0821574
-0.0067349 -0.105907 0.0755973
-0.110314 0.00849091 -0.0723948
0.0594514 -0.104419 -0.127896
-0.0924731 0.198822 -0.0380524
0.0524469 -0.0691821 0.145532
0.0151941 0.121436 -0.211062
0.0696567 -0.0254721 -0.154757
-0.0327383 0.0658935 0.150185
0.0861621 -0.0143755 -0.107506
0.104165 -0.115785 -0.0791469
0.0159634 0.105401 0.105663
-0.0407481 0.0559501 0.150925
0.0792367 0.0423952 0.117806
0.0949169 -0.0995956 -0.119182
-0.122949 -0.0257265 -0.0691166
0.0691652 0.134358 0.0193676
0.130635 -0.0148852 -0.0576269
0.0395006 0.0941484 -0.184444
-0.0515302 0.0885163 0.114535
0.00680759 0.193338 -0.109985
0.11009 -0.049376 -0.0961563
0.031524 0.197496 0.0180411
-0.0466786 -0.0264262 -0.124026
0.0754926 -0.101441 0.0665273
0.000886003 -0.050007 0.172118
-0.0721915 0.105281 -0.168508
-0.0921558 0.00299071 0.155115
0.0472812 0.0440328 0.150994
-0.0450055 0.21441 -0.0473145
-0.0726291 0.0562568 -0.0972977
0.0265268 0.0998876 0.084655
0.026213 0.0828854 0.0838475
-0.0796704 0.0882408 -0.0108037
-0.128377 -0.0182242 -0.113142
-0.109938 0.0045754 0.141573
0.06276 0.0187795 -0.134498
-0.0776242 0.0591139 0.054392
0.0698349 0.056617 0.0659464
0.0119061 0.0524432 -0.17155
-0.0790378 0.198327 -0.0898566
0.0404026 0.0603724 -0.171794
-0.0953785 0.176286 -0.0648078
0.0492725 0.193422 -0.101199
-0.0182233 0.15509 -0.130163
0.0552346 0.0860245 0.0926675
-0.112668 0.0696316 -0.0821658
-0.0510428 0.141301 0.0491774
0.0662852 0.186827 -0.00452608
0.0292962 0.0490466 -0.169846
0.0371696 0.0603185 0.0303675
-0.0254234 0.109394 0.123749
0.100851 -0.0685788 -0.113809
0.0659813 0.181759 0.0218293
-0.110772 0.0085283 -0.0719833
-0.112113 0.00425469 0.0172089
0.0579411 0.0298287 -0.150457
-0.025711 0.109413 0.122859
0.00111446 -0.108217 0.0756293
-0.0656736 0.0711629 0.0891515
-0.0106868 0.0673235 0.0801512
0.0655097 0.16786 0.000691137
0.0384178 0.13427 -0.185619
-0.054476 0.204751 0.00993299
0.0491998 0.0540775 -0.100464
0.0381615 0.031321 -0.108805
-0.097141 -0.00289284 0.155283
-0.029272 0.0596663 0.0268548
-0.13299 -0.0269869 -0.114241
-0.0502359 0.0451763 0.151724
0.0850805 -0.100135 0.0655284
0.115492 -0.0784781 0.0785843
-0.0869448 0.195703 -0.0893191
-0.0967637 0.0501483 -0.0114076
-0.0409899 0.089372 0.0348096
-0.155662 -0.0749335 0.016119
-0.0815103 0.120181 -0.121206
0.0882602 -0.0781974 -0.145111
-0.0969605 0.185723 -0.0580877
0.0222238 0.114459 0.0427083
-0.0936409 0.177493 -0.0564581
-0.0965362 0.0378017 0.0483656
0.110847 -0.047318 0.107477
-0.0783412 0.0733927 -0.00557629
-0.0711973 0.0631588 0.000670175
0.0661264 0.173276 -0.000347317
-0.0593328 0.10604 -0.156441
0.127984 -0.00746028 -0.0580884
0.0480634 -0.128565 -0.0330303
0.0408041 0.104892 0.076087
0.0864253 -0.0746153 -0.142208
0.0651528 0.187986 0.0163437
-0.0828037 0.0543593 0.0356686
0.0429258 0.0284111 -0.156043
-0.0593358 0.175156 -0.116722
-0.0962217 0.187634 -0.0554732
0.107325 -0.11523 -0.0713032
0.0437625 0.0810814 0.0730823
-0.0624195 0.0825966 -0.12524
-0.0508615 0.176471 0.0202964
-0.00980749 0.213628 0.0120661
-0.124134 -0.0852211 -0.0840907
-0.0961799 0.0510958 -0.0109675
-0.0065651 0.151511 -0.132617
0.0550702 0.196696 -0.0911412
-0.0899713 0.064299 -0.0129568
-0.0874684 0.207878 -0.013737
0.0511696 0.0337935 0.155287
0.0418473 0.0246612 0.159971
-0.0586286 0.0654618 0.0589535
-0.0997259 0.056527 -0.0190715
0.0496885 0.0371687 0.156364
0.0411057 0.178396 0.0362255
-0.0828751 -0.0978256 -0.106318
-0.0471496 0.160863 0.0246415
-0.0851875 -0.0271692 -0.108325
0.0672462 0.182986 -0.00239727
0.0481301 -0.107573 0.0713792
0.0654737 -0.103438 0.0679958
-0.078266 0.0923306 -0.00848139
-0.114693 -0.0030029 0.141218
-0.0767388 0.0942641 -0.0069163
-0.0789293 0.0174338 0.154222
-0.042267 0.156558 -0.127691
0.0281026 0.0660166 0.077621
-0.091015 0.202431 -0.0318781
-0.0519211 -0.103456 0.0612785
-0.0946029 0.0216009 -0.0852414
-0.0754963 0.106648 -0.143608
-0.096268 0.175014 -0.0702591
0.0437325 0.0741367 -0.157671
-0.101676 0.0359018 -0.00161996
-0.0123268 0.0935024 -0.201704
0.0405436 0.120593 -0.188503
-0.128904 -0.0567243 0.0903735
-0.00063268 0.218866 -0.035787
-0.0278824 0.0793959 0.149932
-0.0812436 0.21111 -0.0283123
-0.0715373 0.0926602 0.0185033
-0.11881 0.0189082 -0.0811517
0.106068 -0.104147 -0.1031
-0.0875537 0.0678544 -0.0964352
-0.00988607 0.112696 0.125591
-0.0617347 0.107517 0.0144349
0.0379652 0.211272 0.00123855
-0.0819557 0.0851521 0.00882372
-0.0816253 0.086322 0.00960105
0.0605604 0.0769107 -0.0356252
-0.0869385 -0.0909418 0.0658619
-0.071815 0.0580386 -0.0986156
-0.0863913 0.0574923 0.0478065
-0.124414 -0.00883255 0.050487
-0.0586395 0.113236 0.0226223
0.0370565 0.214078 -0.0673242
-0.0748417 -0.103139 0.0169526
-0.0734123 0.0348175 -0.061792
-0.115048 -0.00048972 0.0141807
-0.140897 -0.0487533 -0.114552
0.0359751 0.139581 -0.133699
-0.157838 -0.072296 0.00778225
-0.0593184 0.212494 -0.0463167
0.057646 0.118286 -0.128776
-0.142206 -0.0647047 -0.118534
-0.0996595 0.0512722 -0.0870202
-0.00870509 -0.0280917 -0.142906
-0.106851 0.0268204 -0.0802589
-0.132591 -0.0871158 0.0108278
0.106014 -0.0873532 -0.0988828
0.0501816 0.0360874 -0.0915492
-0.075292 0.140282 -0.117351
0.131366 -0.069676 0.051147
-0.0668154 0.187026 -0.103354
-0.0508692 0.0572998 -0.113609
-0.0948867 0.0580195 -0.0901295
-0.0446623 0.0752492 0.117967
0.0587036 0.140997 -0.128164
0.00268512 0.217413 -0.0567933
0.102398 -0.113398 -0.0984699
-0.0442294 0.0892371 -0.18133
0.0610841 0.0555588 -0.038546
-0.0953426 0.0384326 0.0501754
-0.105119 0.040927 -0.0857406
0.12919 -0.0541269 0.0512198
-0.00623836 -0.111781 -0.112626
-0.0519871 0.0613037 0.108528
-0.0085185 0.0724891 0.0156858
-0.0163045 -0.115122 0.00262175
-0.0946591 0.0138389 0.108403
0.093819 -0.0968713 -0.117894
0.0233913 0.21326 0.00710429
-0.121984 -0.0108931 -0.0574474
-0.0376465 -0.107449 0.0595705
-0.0399304 0.10811 -0.184051
-0.142827 -0.0613093 -0.121875
0.0739998 0.0244123 0.153005
0.0403418 0.0286888 -0.157466
0.126158 -0.0473843 0.097232
-0.0233692 -0.101832 0.07603
-0.0453786 0.215931 -0.0273759
0.0899273 -0.0989627 0.0650968
-0.0898674 0.205636 -0.0243509
-0.0716098 0.0925188 -0.18848
0.0587868 0.0202212 -0.127663
-0.128481 -0.0775001 0.0278761
0.0697359 0.126981 0.0180711
-0.106895 0.0192523 0.011575
0.0370763 0.21624 -0.0461658
0.135298 -0.0603031 -0.0535367
-0.0608656 0.0855459 -0.154034
0.0639749 0.165638 0.0303317
0.0141701 0.101206 -0.206384
-0.0412156 -0.10958 -0.0988001
0.0428644 0.0646738 0.153074
0.0734338 0.00645638 -0.104839
-0.0360135 0.0867706 0.0999211
0.0610303 0.0582918 -0.0309695
0.100135 -0.0236928 0.12209
-0.105649 0.0251825 -0.0943352
-0.103087 0.0359861 0.0317351
-0.097187 0.194457 -0.0742978
-0.0895019 0.0431055 0.0711481
0.0325876 0.11074 -0.195618
0.0506972 0.0441437 0.149764
-0.0293871 0.0965423 0.144454
-0.0964541 0.0324303 0.0686284
-0.100174 0.0408288 0.0263364
-0.1262 -0.00928307 -0.130899
-0.0328452 0.0963622 0.133365
0.0473879 0.0329101 -0.0998301
0.0725111 0.111268 0.011349
-0.0230662 0.0619251 -0.164591
-0.064971 0.0763022 -0.163367
-0.0824606 0.0142414 0.154664
-0.0283548 0.0783592 0.149878
0.0768833 -0.110854 0.048936
-0.0957804 0.0211414 0.140997
-0.0961676 0.166959 -0.0881667
0.134358 -0.0773976 -0.0503296
-0.0605455 0.190065 0.0148075
-0.0708308 0.0263458 0.153939
-0.0499073 0.071614 -0.140223
-0.040485 0.0687246 0.0606076
-0.0267683 0.102455 -0.211996
-0.0657529 0.101886 0.00576185
0.0672538 0.0947451 0.0111291
0.0160454 -0.109339 0.0751395
0.0655753 0.1207 0.0291211
-0.0109706 -0.048225 0.174216
0.119078 -0.105991 -0.0650315
-0.0661066 0.0782426 -0.169348
-0.0727034 0.12243 -0.17777
-0.0693377 0.0641791 0.0862428
-0.12329 -0.0258324 0.137309
-0.115922 -0.0227246 0.14452
0.0140413 -0.069646 0.16051
0.0475049 0.122323 -0.169092
-0.0518305 -0.00783065 -0.12875
-0.0165197 0.102376 0.10851
-0.0532537 0.137501 0.0497945
-0.00606664 0.0884047 0.0929191
-0.0932886 0.0442644 0.0617474
0.0886213 -0.121138 -0.0281531
-0.122751 -0.0204529 0.139527
-0.117954 -0.0229907 0.14375
0.0343611 -0.119737 0.0565548
0.0266538 0.0720385 0.147529
-0.0996824 -0.104483 0.00457072
-0.0950914 0.195905 -0.0659335
0.0562834 0.199549 -0.0850919
0.133929 -0.0251532 -0.039007
-0.0182564 0.212325 -0.0966107
0.0444674 0.212431 -0.0699641
0.02523 0.187912 -0.112814
0.0539159 0.0429 -0.138144
-0.0239955 0.109518 0.130221
0.0602306 0.071767 -0.051621
0.107255 -0.105526 -0.0998269
0.11142 0.00822944 -0.0772913
0.0511663 0.207734 -0.073681
0.126707 -0.0734034 0.062144
-0.0591014 0.0370036 0.152888
-0.0795827 0.182788 -0.10186
-0.0632645 0.197427 0.013781
-0.0374844 0.0244344 0.171039
-0.076924 0.133394 -0.133769
0.0562893 0.120241 -0.127872
-0.0575278 0.124087 0.0514403
0.0133764 0.0238912 0.171625
-0.0531173 0.0719677 0.0883327
-0.129014 -0.0890302 0.010091
-0.0473431 0.212817 -0.0948808
-0.073318 -0.10404 -0.0885876
-0.0726576 0.122643 -0.174369
-0.14073 -0.0497997 -0.00326988
0.0360076 0.02465 0.161778
0.0109806 0.0645924 0.0788361
0.0501187 0.06751 -0.141927
0.119709 -0.0974069 -0.0646284
-0.048044 0.0648939 0.0691862
0.0434946 0.135646 -0.172936
-0.120218 -0.0901326 -0.0617453
0.110008 -0.090976 0.0636805
-0.0629955 0.0613618 0.0398716
-0.0645032 0.0632816 0.0574465
0.0246862 0.0763969 0.145781
-0.0691879 -0.10483 0.0155547
-0.0338076 0.0949758 0.136053
0.055228 0.197267 -0.0889231
0.130525 -0.0806929 0.0437961
-0.112526 -0.0394972 0.151186
-0.0660548 0.204991 -0.0923867
0.0716235 0.103841 0.00736871
0.0273999 0.201693 -0.0997334
-0.037635 0.199767 -0.10804
0.0781798 -0.0891371 -0.148716
-0.0408263 -0.00812981 -0.135216
0.0436375 0.0567002 -0.162965
-0.0400911 0.08476 0.136189
-0.00748845 -0.116288 0.0585188
0.0641559 0.200698 -0.0174031
0.0695629 0.150799 0.0164084
0.0741475 -0.0503671 -0.155813
-0.0793702 0.0383382 0.140051
0.0504918 0.208074 -0.0847849
0.0604266 0.0775803 -0.0334303
0.0379493 0.0704591 -0.187629
0.0429493 -0.0154242 -0.169789
0.00642785 0.0649965 0.0792046
-0.0745332 0.0390657 0.104607
-0.0815787 -0.100892 0.0185554
0.104516 -0.112809 -0.10299
0.058881 0.0617445 0.0281524
0.118141 -0.0975529 -0.07037
0.0249169 0.0319198 -0.161033
0.141961 -0.0627734 0.0258317
0.0613514 0.0600885 -0.0248368
0.116973 -0.0967863 -0.0730384
0.120633 -0.103825 0.0168403
-0.0622216 0.193826 0.014492
0.100012 -0.105966 0.0468835
0.10436 0.00625251 0.039012
0.103983 -0.0987471 -0.105794
0.0651417 0.128328 0.0327055
-0.144468 -0.0623074 -0.107684
0.0293875 0.187479 -0.113662
-0.075339 0.199707 -0.0904479
-0.105323 0.0188976 0.0692755
0.0138095 0.215751 -0.059738
0.133626 -0.0815947 -0.049358
0.0892945 0.0255692 -0.046338
-0.0676415 0.130682 -0.147091
0.0641869 0.207794 -0.0269652
-0.0377488 -0.0082146 -0.136657
-0.0338127 0.0964262 0.13183
0.0843496 0.0359061 0.0637728
-0.157868 -0.0828777 -0.0692157
0.0433194 0.115925 -0.16961
0.0795074 0.0341557 -0.050257
-0.0605436 0.157545 -0.124689
-0.0999964 0.0115889 -0.0845372
-0.0702336 0.102076 -0.190339
0.080884 -0.0658268 -0.150929
0.116722 -0.0488406 0.104633
0.102402 0.0178947 0.055156
0.117988 -0.110252 -0.030613
-0.0927613 0.0478911 0.0670466
-0.0103381 0.0576529 0.0289739
0.011871 0.0832582 0.0852777
-0.0698924 -0.0858414 0.080768
0.0657971 0.188239 -0.00554898
-0.0953529 -0.101724 -0.0840497
-0.0203835 -0.00859238 -0.14458
-0.123235 -0.0311466 0.136503
-0.0332267 0.104004 -0.197712
-0.106838 0.0279815 -0.0094026
-0.127243 -0.061151 -0.0504743
-0.0787266 -0.0833263 0.0821442
-0.0436953 0.207327 0.0104741
-0.0821868 -0.0936502 0.0653679
-0.0239145 -0.0462288 0.176288
-0.110392 0.0093819 -0.0283621
-0.0360571 0.0647326 0.0419271
-0.103742 0.0368964 0.0249231
-0.0704687 0.0611617 -0.101251
0.0497992 0.172986 -0.126735
-0.0445898 0.138096 0.0574143
0.116001 -0.107527 -0.0713635
-0.119421 -0.09064 -0.0635603
0.0632798 -0.00839498 -0.169314
-0.0978738 0.195397 -0.0769681
0.0415794 -0.108249 0.0724575
0.0413285 -0.121426 -0.0115058
-0.0992271 0.0487009 -0.0104955
-0.0730493 0.122299 -0.180251
-0.119065 -0.0912909 -0.0657206
-0.0981371 0.194272 -0.0779746
-0.126355 -0.0470769 0.0899234
-0.0463624 0.113788 -0.167703
-0.0607794 0.0647724 0.058561
-0.118816 -0.0068328 0.0107644
-0.0924465 -0.0866833 0.0657685
-0.0301867 0.096469 0.141533
0.0745244 -0.0526343 -0.167606
-0.123595 -0.0465571 -0.0439686
-0.0907579 0.18466 -0.00903025
-0.0232937 0.0738742 0.0136222
-0.0768864 0.210265 -0.047855
0.0505191 0.036847 -0.0895637
-0.0457415 0.16457 0.0439835
-0.0739871 0.0546105 0.000865832
-0.0938458 0.194524 -0.0449264
-0.0223748 0.0853868 0.14937
-0.108508 0.0273144 -0.078265
0.0898134 -0.0802961 -0.142186
-0.0549437 0.134908 0.0301331
-0.122354 -0.0154521 -0.061036
-0.12213 -0.0195496 -0.0639096
0.0571302 0.206705 -0.0551749
0.0612997 0.0614138 -0.0204643
0.057545 0.0846352 0.0962059
-0.105637 0.00341744 -0.0819419
-0.101372 0.0571088 0.000852096
0.0587458 0.0697842 -0.0577238
0.0365503 0.0834599 0.0689502
-0.150339 -0.0502765 0.0220582
-0.129215 -0.0660009 -0.0732231
-0.0735068 0.121665 -0.186716
-0.0720059 0.11148 -0.145951
-0.121107 -0.0902237 -0.0598397
0.143775 -0.0581513 0.00575616
-0.123214 -0.0363137 -0.077846
-0.124862 -0.0840646 -0.0809498
-0.0599246 0.0678215 0.00428047
0.113687 -0.112236 -0.0466601
-0.0515847 -0.0265107 -0.121609
-0.0228745 0.0846295 0.14926
-0.0741494 0.106146 -0.148097
-0.116054 -0.043743 0.12224
-0.142879 -0.058139 -0.124875
0.0554541 0.197944 -0.0867743
0.0909059 -0.0150469 0.146754
-0.114256 0.106876 -0.0868649
-0.0686494 0.186311 -0.103057
0.0441532 0.0779717 0.0679133
-0.00734686 0.11606 -0.2088
0.0657084 0.189851 -0.00670584
0.0196811 0.127064 -0.209978
-0.0950086 -0.000466706 0.155086
-0.051242 0.0581294 -0.112706
-0.0682844 0.202912 -0.0912361
-0.0861845 0.0708986 -0.0986643
-0.0840962 0.0757218 -0.102766
0.0623632 0.0798207 -0.0213034
-0.143092 -0.0533669 -0.112786
0.0462103 0.0245559 0.157636
0.109563 -0.0037014 0.0428774
0.0403029 -0.128946 -0.03001
-0.0758046 0.0535299 -0.0689153
-0.0888798 -0.0766382 0.0826911
-0.0710979 0.211726 -0.0270061
-0.0542861 0.120792 0.0484731
-0.0845195 0.0575325 -0.00267489
-0.0283089 0.0651058 0.041698
-0.0332619 -0.0267683 -0.131663
0.0460879 0.19543 0.0118565
0.0261549 -0.0324141 -0.157984
-0.0481353 0.0644492 0.110379
-0.0742067 0.037695 -0.0568032
-0.0900459 -0.0228847 0.166581
0.0604896 0.206197 -0.0144589
0.0599749 0.0530331 -0.0457302
-0.109939 0.018697 0.0035453
0.0611207 0.0544309 -0.0416878
-0.0801084 0.145743 -0.117739
0.0868517 0.00903413 -0.0900315
0.116394 -0.111129 -0.0378095
-0.09556 0.16147 -0.0966636
0.000950004 0.136535 -0.146009
-0.0361148 0.0958489 0.128301
-0.0402844 0.0834794 0.136128
-0.103177 0.0334581 0.0376396
-0.0734874 0.0569816 0.0376501
0.107872 -0.115067 -0.069687
-0.0379494 0.0658843 0.0832884
-0.109112 -0.0269512 -0.096056
0.0192904 0.0327495 -0.162559
-0.0624138 0.0669045 0.00346388
-0.0896273 0.210158 -0.0301459
-0.00697075 0.0957452 -0.203557
-0.156876 -0.0712151 0.0145569
-0.063878 0.199084 0.0122362
0.0657116 -0.0664731 0.137407
0.0467984 0.115984 -0.162221
-0.0507205 0.214659 -0.0269962
0.0281086 0.0705107 0.148552
0.0771657 0.0123975 0.158174
0.0739976 -0.0459349 0.139713
-0.0547737 0.158106 -0.124822
0.0711865 -0.0383902 -0.156483
-0.07461 0.117444 -0.200002
-0.0536606 0.0862087 0.112579
-0.0524139 0.043048 0.152053
0.0721359 -0.0426943 -0.156628
0.0391601 0.134844 -0.183102
-0.0180253 0.0882645 0.0944173
0.0305474 0.0442136 0.160324
0.09497 -0.0932596 -0.11665
-0.0856227 0.164716 -0.111142
-0.0981394 0.191974 -0.0823401
-0.106934 0.0270052 -0.0798048
-0.167038 -0.070701 -0.0601486
0.0645158 0.00854776 -0.141677
0.103034 -0.115933 -0.0819285
0.0688409 -0.0224636 -0.15424
-0.0562438 0.135338 -0.133043
-0.0878116 0.0475646 0.0150411
0.0574363 0.125088 -0.127907
0.0510582 -0.0333629 -0.163235
0.0634494 0.176042 0.0188241
-0.111733 0.00552287 -0.0925984
-0.112777 0.0763394 -0.0797436
0.114969 -0.0656583 0.0969451
-0.0729064 0.113993 -0.200925
0.0306262 0.0912371 0.100485
0.0410013 0.084318 -0.173536
-0.0330168 0.0839837 -0.204586
0.0532871 0.203259 -0.0763634
0.119859 -0.0864501 0.0645975
0.0644878 0.203357 -0.0204999
0.0615624 0.0623268 -0.0157829
-0.00436316 0.0967773 -0.204411
0.0171743 0.113305 0.104974
-0.11277 0.0848966 -0.0752365
-0.0244848 0.087825 0.0382323
-0.00364655 0.158935 0.0405546
-0.0287511 0.0639785 -0.161166
-0.0830774 0.144118 -0.117623
-0.0868823 0.0672145 -0.0147395
0.121007 -0.0964462 -0.0580867
-0.0307559 0.143527 -0.140837
-0.0441932 -0.104956 0.0600125
-0.0416101 -0.0423372 0.177565
0.0697569 -0.127504 -0.0405853
0.0671932 0.184629 -0.00302174
-0.0630479 0.188256 -0.103644
-0.108261 0.00629173 0.141427
-0.0455051 0.0899773 -0.17905
0.0537733 -0.106111 -0.127808
0.0649168 0.00303453 -0.144314
-0.0455616 0.0576858 0.023696
-0.101677 0.0088446 -0.0837373
0.118259 -0.0825266 0.0744568
-0.124462 -0.0844957 -0.0819134
0.0587844 0.206293 -0.0622281
-0.0422421 -0.0947735 0.0771154
0.116413 0.00125434 -0.0767177
0.0764615 0.0179849 0.156081
-0.114258 -0.0272068 0.117822
-0.0627681 -0.106052 0.0138978
0.0874761 -0.0955837 -0.137386
-0.0769927 0.0618936 -0.0513161
-0.0519676 0.211246 -0.0943561
-0.119822 -0.0902602 -0.0626136
0.0659736 0.173259 0.0273449
-0.0463548 0.153501 0.0414945
0.108796 -0.0499731 0.11608
-0.00144832 0.0373698 -0.161171
0.0530629 0.19464 0.00857449
0.125413 -0.101846 -0.0624213
-0.0738895 0.0623125 0.0700015
-0.0439238 -0.0265515 -0.126158
-0.111592 -0.0173542 0.115582
-0.0433952 0.0816407 0.0921931
0.0413513 0.0801849 -0.168119
0.103892 -0.0205024 -0.0940142
-0.032932 0.143292 -0.140696
0.129885 -0.0914999 -0.0200579
0.0647331 0.129394 0.0332449
-0.0861381 0.134446 -0.112403
-0.077101 0.148309 -0.1188
0.0566516 0.207083 -0.0111872
-0.101879 0.036872 0.0212671
-0.0837509 0.0460847 0.0137067
0.0135171 0.217956 -0.0391885
0.053376 0.0402855 -0.0802511
-0.0872686 -0.103141 -0.0861593
-0.0348887 0.154807 0.041114
-0.0998213 0.0382152 0.00699071
0.0656322 -0.00523558 -0.148214
0.0183594 -0.0314871 -0.155184
0.0550263 0.211158 -0.0530022
0.0556865 -0.0331601 -0.164331
-0.0569984 -0.107882 0.0126593
-0.12447 -0.0448556 0.105499
0.0848678 -0.127041 -0.0457796
0.0659943 0.180274 0.0229819
-0.0223423 -0.114254 0.00413559
0.0317055 -0.102381 -0.144021
-0.0819719 0.133964 -0.116304
0.05104 0.116411 -0.146932
-0.0727211 0.112093 -0.200576
-0.0246995 0.109541 0.127426
-0.0118609 -0.027798 -0.141466
0.0771724 0.000614406 -0.105375
0.127135 -0.0569647 0.0828235
0.0180835 0.122283 -0.211202
0.0784158 -0.0624395 -0.153159
0.0806382 0.0474781 0.0335921
0.0382428 0.196348 0.0149766
-0.0624475 0.082601 -0.123502
-0.0392189 0.0579598 0.150977
-0.0679735 0.0646594 -0.104848
-0.0153326 -0.113924 0.0584837
0.101356 -0.115946 -0.0874423
-0.0202509 0.0581883 0.0274541
-0.0555518 0.127642 0.0309447
0.0416081 0.212585 -0.0690659
-0.0206146 0.094749 0.152584
0.0357118 -0.102249 -0.144805
0.0816142 -0.0677643 -0.149788
0.0460999 0.0711643 0.0559292
0.0297982 0.0912911 0.101189
0.120689 -0.0232867 0.0659184
0.0943073 -0.121491 -0.0300481
-0.142905 -0.0597864 -0.122867
-0.016527 0.0432066 0.170972
0.0709988 0.0356165 -0.0915166
-0.114072 -0.0925764 -0.0705884
0.0656193 0.0650729 -0.00358545
-0.0641259 0.129981 -0.150599
-0.113144 0.0932445 -0.0934072
-0.0424772 0.0511633 -0.140565
0.0130935 0.0583187 0.0305387
0.0676689 0.064501 0.119965
-0.0840831 0.0514779 0.0737228
-0.0517636 0.0656299 0.137325
0.00783355 -0.126338 -0.0215566
0.0731985 -0.0640834 0.132106
-0.0710431 0.104349 -0.193483
0.0336786 0.0843612 0.0833117
-0.0939546 0.208372 -0.0601203
-0.0363102 0.208437 0.0105038
0.123373 -0.0955347 -0.0510416
-0.142362 -0.0636155 -0.119868
-0.121145 -0.0125675 -0.0840695
-0.0560693 0.0665044 0.0590971
-0.0868583 0.207929 -0.012241
-0.0194122 0.155407 -0.129409
0.062245 0.111886 0.0248113
-0.0884331 -0.0272229 -0.107826
-0.0642303 0.1007 0.0330707
-0.0838013 0.132709 -0.117331
0.00519173 -0.118288 -0.00238006
-0.0289947 0.0738141 0.149511
-0.00172653 -0.111801 -0.114482
-0.0495315 0.093161 -0.169334
0.0601025 0.0142861 -0.160132
-0.138885 -0.0479546 0.0526195
-0.0239838 0.156433 -0.128163
-0.054765 0.1302 0.0331849
0.0598503 0.0173756 -0.158653
0.0732741 -0.0508453 -0.168623
-0.0122718 0.0864328 0.0865251
-0.00968355 0.0395452 -0.160171
0.040347 0.0316165 -0.106065
0.0167711 0.190453 -0.110932
-0.105252 0.0296022 0.0129005
-0.08478 0.196607 -0.0895578
-0.0354588 -0.0268185 -0.130526
-0.0590553 0.133262 -0.131791
-0.0883671 0.0326036 -0.0860671
-0.0749093 0.069778 -0.0242144
-0.0773117 0.198923 -0.0901766
0.0513507 0.0660287 -0.139029
-0.0775249 0.0557535 0.0367689
-0.0755861 0.123375 -0.157132
-0.093452 0.0231456 -0.0856273
-0.0559796 0.121799 0.0299715
0.0717698 0.116237 0.0138639
-0.0674721 0.0823445 0.0932854
-0.093174 0.177246 -0.0998061
0.0260863 0.0748197 0.018315
0.124401 -0.0810389 0.0637826
-0.0909424 -0.102473 -0.0852209
0.0406599 0.105276 0.0768716
-0.123269 -0.0341056 -0.0760525
0.0631771 0.0172545 -0.135777
0.0885638 -0.127621 -0.047073
0.0420621 -0.118273 0.0551575
-0.0875689 0.210439 -0.0296235
-0.0287626 0.0751115 0.149552
-0.0658849 0.0650927 0.00208839
-0.0656645 -0.098592 0.062957
-0.130522 -0.0750505 0.0750068
0.0753299 0.0424551 -0.085944
0.0365028 0.0850173 0.0829793
0.0604531 0.2109 -0.0484219
0.0661605 0.10402 0.0170648
-0.0725858 0.111145 -0.200166
0.0113536 -0.0305439 -0.15224
-0.071015 0.106099 -0.194816
-0.11392 -0.0867976 0.0253638
-0.0781535 0.136652 -0.115794
0.0757805 0.019755 0.155605
-0.0395672 0.105574 0.0455591
0.0451923 0.0718374 0.0575212
0.101597 -0.100651 -0.1127
-0.0483452 0.170796 0.0219184
0.0623055 0.063041 -0.0123441
0.099168 -0.0332805 0.122592
-0.0912808 0.0618274 -0.00614815
-0.117035 -0.0180194 -0.0491246
-0.072492 0.121024 -0.170013
0.106266 -0.09889 -0.0982505
-0.0573366 0.107304 0.0409317
-0.0428474 0.110237 -0.176926
0.126664 -0.0736542 0.0621141
-0.107477 -0.00824836 0.113472
0.0501231 0.0244306 0.153765
-0.0625115 0.14975 -0.121734
0.0691931 0.0436185 -0.0946947
0.123419 -0.0945586 0.0466649
-0.104648 0.0210773 0.0332194
0.0666775 0.177666 -0.00111736
-0.0368049 0.217451 -0.0291641
-0.112147 -0.0371318 0.151314
-0.0627724 0.102564 0.0363865
-0.0999516 0.0363923 0.0422682
0.0578371 0.0683201 -0.0621118
-0.0628795 -0.0883714 0.0799212
-0.0705731 0.0702841 0.0880419
-0.0944873 0.193137 -0.0471735
0.0630512 0.049072 -0.118362
0.0239043 0.0500054 -0.17101
-0.0954356 0.0173265 0.0866575
-0.0024829 0.0975153 -0.205468
0.0189523 0.0436019 0.166453
-0.00426772 0.219009 -0.0351077
0.02512 -0.0138385 -0.165189
0.108143 -0.0435734 0.107981
-0.0198044 0.0683131 0.0803247
0.0610745 -0.114424 0.0516222
-0.0589663 0.112639 0.0216908
-0.0887746 0.197495 -0.0256162
0.0315225 0.180298 -0.130506
-0.0836389 0.143293 -0.117432
-0.133376 -0.0252159 -0.133413
-0.0207262 0.15562 -0.128684
0.0647076 0.00620952 -0.142787
0.0101735 0.0348055 -0.162281
0.0182365 0.0846599 0.139957
-0.0481571 0.0633513 0.0856492
-0.135972 -0.0524382 0.0721618
-0.0728101 0.0987518 -0.190925
0.0159503 -0.119629 0.0579904
0.066022 0.187476 -0.00501551
-0.0862132 0.0674247 -0.0145507
-0.0947744 0.195597 -0.0671475
-0.0640368 -0.0551037 0.169677
-0.0490263 0.138028 -0.134882
-0.0229769 0.21874 -0.0315313
0.0314477 0.0911676 0.0996522
-0.0555952 0.0841175 0.110605
0.0162702 0.0954078 0.126874
-0.112424 0.00479866 -0.0920609
0.0527649 0.175089 -0.115498
-0.0137682 0.198305 -0.11015
0.00545612 0.0991403 -0.206904
-0.0993709 0.0365703 0.0433683
-0.0222898 0.155976 -0.128271
0.0150496 0.213347 0.00823627
-0.0949317 0.206538 -0.0630655
0.106804 -0.027985 -0.0946936
0.136486 -0.0390134 -0.0556224
0.0419287 0.0784664 -0.165547
0.038121 0.112967 -0.199171
-0.0776595 0.0649937 0.0922204
-0.12156 -0.0336378 -0.0590997
-0.111339 0.00879022 -0.0712763
0.0392461 0.158489 0.035724
-0.0440181 0.0654712 0.083782
0.136595 -0.00409041 -0.00715747
-0.0481426 0.0679067 0.0600497
-0.0439419 -0.00791377 -0.133413
-0.0369658 0.0602679 0.0261133
0.101777 -0.0556527 0.117097
-0.0521386 0.13729 -0.134405
-0.10667 -0.0854066 0.0693859
0.0756871 -0.120437 -0.0236361
0.0582683 0.223519 -0.0299818
0.109865 -0.0472787 0.108017
-0.0752037 0.109068 -0.132525
-0.0531086 -0.11849 -0.00649378
0.087958 -0.0396033 0.129449
0.0213955 0.107218 -0.208194
0.0699131 0.125397 0.0178086
-0.12028 -0.006112 -0.0786069
-0.0636619 0.213569 -0.0264661
-0.0556584 0.13075 0.0316194
-0.0913666 0.150756 -0.104183
0.020206 0.215714 -0.0612753
0.0647685 0.183955 0.0173135
-0.038981 0.0896047 0.136569
-0.052766 0.137947 0.0296698
-0.0378249 0.140612 -0.137027
-0.126036 -0.0272136 0.131589
-0.118325 -0.0687761 0.0899289
-0.0673361 0.0806544 -0.173675
-0.108355 -0.00422929 0.151416
0.0587222 0.0205706 -0.12746
-0.130955 -0.0231957 0.0497815
-0.0802617 0.0871404 -0.0115008
0.0995497 -0.0349176 0.122867
-0.0724478 0.110269 -0.199386
-0.0862036 0.207939 -0.0101557
0.0350347 0.214728 -0.0664348
-0.0807626 0.0545583 0.0363044
-0.0754313 0.0212672 0.154186
-0.141326 -0.0730288 -0.0982977
-0.0285775 0.0464281 -0.151576
-0.0571084 0.0383123 0.152496
-0.0940015 0.043398 0.0599851
0.069397 0.140527 0.019425
0.0667475 0.176384 -0.000804131
-0.0548052 0.0406636 0.152336
-0.0723617 0.121095 -0.171076
-0.152104 -0.0740074 -0.00355491
0.0547473 0.107232 -0.135815
-0.0288176 0.0759659 0.149641
-0.076395 0.0601235 -0.0559109
-0.0615185 0.129363 -0.152872
-0.112771 0.00453131 -0.0918474
0.0112762 0.100352 -0.206886
-0.156473 -0.0706644 0.0175755
0.0349619 0.090877 0.0957965
-0.0877717 0.19876 -0.0228963
0.0632916 0.139641 0.0351821
-0.0536995 0.214155 -0.0267669
0.0711986 0.0428991 0.140155
0.0130584 0.147495 -0.134235
-0.148036 -0.056521 -0.0222013
-0.0726063 0.0602931 0.0556156
0.0554777 0.207002 -0.0109062
-0.0272464 0.109637 0.119493
-0.0584355 0.0462415 0.150086
-0.117456 0.11471 -0.0844166
0.13489 -0.0668467 -0.052614
-0.0337409 0.217362 -0.0297467
-0.11199 -0.0940774 -0.0733232
-0.108275 0.0271793 -0.0785333
0.100143 0.00527654 0.112099
0.0168748 0.132854 -0.147315
-0.0955427 0.165251 -0.0914621
-0.0960243 0.168742 -0.084133
0.0651303 -0.0172272 -0.171042
-0.0337447 0.0643931 0.150328
0.101096 0.0111545 0.0876988
0.0226499 0.0829702 0.0839483
-0.111399 0.00730313 -0.0927288
-0.0732471 0.111742 -0.145271
-0.0848856 0.0545904 0.0348038
-0.0648708 -0.11503 -0.00384965
0.0269149 0.107648 -0.20176
0.058069 0.204464 -0.0564005
0.104566 -0.0909617 -0.0992539
0.0850368 -0.0415482 0.132413
0.0504436 -0.0511599 0.153969
0.0916313 -0.0840054 -0.133716
-0.0746497 0.0469133 -0.0351592
-0.0119872 0.153022 -0.132025
0.0413422 0.122737 -0.146791
0.0186229 0.159595 0.0368309
-0.139733 -0.0464069 -0.115083
-0.0304674 -0.00824299 -0.140394
-0.081546 0.0792414 -0.106624
0.0278183 0.0717027 0.0577959
0.0227732 0.0738808 0.0176032
0.133263 -0.0458183 -0.0741508
-0.107754 -0.0266197 -0.0979277
-0.110364 0.0208747 0.057843
-0.122788 -0.0855476 -0.085488
-0.108425 0.027108 -0.0887906
0.0377216 -0.0706705 0.152781
0.0388788 0.0992922 -0.189255
