ply
format ascii 1.0
element vertex 1136
property float x
property float y
property float z
end_header
0.21712 1.25233 -0.527742
0.222152 1.24995 -0.52359
0.217793 1.26004 -0.525047
0.196551 1.26275 -0.531004
0.197643 1.25101 -0.523373
0.114707 1.24795 -0.521939
0.0411409 1.24344 -0.52016
0.22386 1.25646 -0.534053
0.216905 1.25391 -0.538719
0.202965 1.35539 -0.435875
0.170102 1.23819 -0.418014
0.206536 1.25154 -0.525048
0.219198 1.25406 -0.511837
0.217294 1.26521 -0.520737
0.21648 1.25864 -0.526042
0.217823 1.25659 -0.496968
0.21667 1.27825 -0.506158
0.203846 1.34116 -0.446388
0.113866 1.23347 -0.397369
0.0475958 1.22781 -0.270801
0.171728 1.23486 -0.329662
0.211074 1.24873 -0.217147
0.2154 1.24757 -0.217151
0.215221 1.24739 -0.449324
0.229811 1.24264 -0.225105
0.221199 1.24569 -0.212583
0.226912 1.24287 -0.25824
0.0441627 1.31143 -0.20682
0.232079 1.24295 -0.219784
0.229297 1.24214 -0.229728
0.0636219 1.38298 -0.184844
0.206317 1.25105 -0.218632
0.208835 1.24964 -0.21798
0.100605 1.53674 -0.315875
0.191432 1.53604 -0.354371
0.203137 1.3954 -0.207051
0.225567 1.24264 -0.269655
0.199696 1.44144 -0.212705
0.155599 1.23596 -0.394047
0.0943626 1.23077 -0.312737
0.0867673 1.5142 -0.194919
0.195475 1.49088 -0.225571
0.197205 1.52874 -0.238954
0.180942 1.27301 -0.222304
0.205828 1.504 -0.249529
0.212368 1.4365 -0.346836
0.200046 1.52985 -0.234056
0.189942 1.52959 -0.23362
0.208059 1.49855 -0.25731
0.229826 1.2465 -0.212476
0.207554 1.50016 -0.254734
0.059718 1.22907 -0.280646
0.126821 1.41734 -0.218834
0.0447545 1.5134 -0.183096
0.232566 1.24296 -0.219149
0.19938 1.44947 -0.214496
0.193622 1.53394 -0.288302
0.108163 1.51653 -0.199648
0.195052 1.49795 -0.225304
0.0165386 1.54072 -0.347524
0.138559 1.52156 -0.20525
0.144703 1.52248 -0.206689
0.194605 1.5303 -0.257456
0.0739073 1.51391 -0.191196
0.210228 1.42641 -0.361314
0.200773 1.423 -0.210686
0.208456 1.48488 -0.276574
0.1434 1.44208 -0.2207
0.22246 1.23925 -0.211325
0.10531 1.53665 -0.310927
0.216719 1.25893 -0.526034
0.188538 1.53676 -0.44906
0.189231 1.53864 -0.484898
0.151133 1.45331 -0.221608
0.190559 1.53897 -0.514415
0.138716 1.30486 -0.51626
0.0796315 1.51402 -0.193218
0.132522 1.30929 -0.514008
0.190398 1.53142 -0.505078
0.18045 1.53021 -0.515837
0.155734 1.2507 -0.523151
0.191529 1.53585 -0.344441
0.113651 1.51745 -0.200908
0.209251 1.25602 -0.534463
0.156334 1.46149 -0.222743
0.191474 1.53587 -0.511127
0.112702 1.23153 -0.333454
0.19062 1.51116 -0.224574
0.193541 1.53429 -0.292825
0.222833 1.24187 -0.315152
0.188425 1.51813 -0.511868
0.188866 1.53596 -0.415927
0.194139 1.53207 -0.268669
0.14701 1.49917 -0.513594
0.190411 1.52829 -0.507146
0.12637 1.48144 -0.513552
0.188588 1.53681 -0.462602
0.176563 1.52716 -0.514477
0.202054 1.36668 -0.427638
0.189177 1.53785 -0.475879
0.186057 1.53933 -0.514153
0.190549 1.54102 -0.504491
0.103593 1.24695 -0.521736
0.190806 1.54105 -0.509435
0.185345 1.52361 -0.503548
0.18304 1.50896 -0.491462
0.159973 1.53877 -0.50225
0.171469 1.52194 -0.514359
0.19855 1.45878 -0.216303
0.147507 1.55171 -0.496231
0.176045 1.54963 -0.518276
0.175244 1.54986 -0.518124
0.192835 1.53557 -0.318601
0.192001 1.53644 -0.337128
0.137328 1.24957 -0.522824
0.101305 1.537 -0.494243
0.160121 1.51174 -0.51094
0.0527328 1.42326 -0.517161
0.166945 1.51672 -0.513512
0.179019 1.49467 -0.224417
0.201326 1.41372 -0.210012
0.213713 1.45393 -0.319325
0.188981 1.53735 -0.471461
0.163522 1.52411 -0.21167
0.208611 1.41603 -0.374866
-0.096333 1.50954 -0.362676
0.190625 1.5411 -0.507
-0.104999 1.5135 -0.449483
0.18853 1.53602 -0.423523
-0.00836907 1.52668 -0.491606
-0.0675859 1.51707 -0.491522
-0.106383 1.51254 -0.486969
-0.101327 1.51196 -0.491291
-0.0941732 1.46047 -0.504557
-0.106124 1.51278 -0.483559
-0.101222 1.50854 -0.49795
0.203415 1.51339 -0.232346
-0.03815 1.52186 -0.491208
-0.0213656 1.5253 -0.416928
0.000198707 1.52802 -0.49163
0.164708 1.23679 -0.409132
-0.107411 1.44939 -0.483768
-0.0997854 1.51209 -0.42022
-0.0835321 1.50646 -0.489706
-0.107858 1.48284 -0.482878
-0.104211 1.51313 -0.441842
-0.104797 1.4848 -0.450982
-0.110395 1.42513 -0.489239
0.18916 1.53669 -0.438556
-0.114175 1.50205 -0.48846
-0.106956 1.481 -0.482706
-0.100539 1.5072 -0.496973
-0.105343 1.51347 -0.467389
-0.104848 1.5138 -0.457435
-0.100023 1.50746 -0.496849
-0.0992671 1.5077 -0.496496
-0.100086 1.51092 -0.493939
0.190067 1.53988 -0.492203
0.169124 1.53871 -0.505212
-0.113905 1.50369 -0.513365
-0.0982428 1.51144 -0.412393
-0.109624 1.4211 -0.489797
-0.0949132 1.43474 -0.507602
-0.107254 1.45308 -0.483236
0.190392 1.54037 -0.495833
-0.0661233 1.49137 -0.493338
0.209024 1.31092 -0.470095
-0.0716137 1.51836 -0.4624
0.094301 1.53553 -0.321923
-0.11215 1.50516 -0.510076
-0.107509 1.41021 -0.490455
-0.0948996 1.42118 -0.511434
-0.108709 1.41694 -0.490072
-0.0576215 1.52058 -0.449497
0.0234635 1.53088 -0.492656
-0.10847 1.48789 -0.483411
-0.108484 1.48528 -0.483054
-0.0615194 1.52015 -0.453139
-0.0479967 1.52011 -0.491372
-0.0608032 1.48675 -0.493564
-0.113019 1.49405 -0.485992
-0.113419 1.50225 -0.483515
-0.114442 1.5017 -0.486303
-0.102265 1.48287 -0.446351
-0.0972674 1.50627 -0.303015
0.190189 1.26681 -0.530195
-0.0561481 1.48235 -0.493341
-0.100794 1.47925 -0.441089
-0.0929688 1.42744 -0.384338
0.144749 1.24776 -0.204385
-0.0981257 1.50465 -0.253904
-0.0579556 1.5267 -0.215436
-0.0938868 1.44981 -0.405906
-0.0972985 1.51093 -0.401168
-0.104256 1.30422 -0.498729
-0.104853 1.38837 -0.490964
0.165857 1.51594 -0.513709
-0.104086 1.38423 -0.490785
-0.0998108 1.50697 -0.49172
-0.0984649 1.50464 -0.24349
0.155236 1.2479 -0.205477
0.206521 1.50154 -0.252633
0.0896056 1.23037 -0.308
-0.0982363 1.24982 -0.474623
-0.0474278 1.47246 -0.49127
0.215094 1.24625 -0.43886
0.150706 1.29606 -0.520207
0.0310215 1.52562 -0.372877
0.174596 1.48857 -0.225561
-0.0897425 1.5039 -0.188476
-0.0707245 1.51986 -0.190608
-0.100117 1.50795 -0.49717
-0.00768217 1.51045 -0.173194
-0.096633 1.50768 -0.32291
0.172455 1.52282 -0.514807
-0.0638763 1.24858 -0.195573
-0.0732057 1.51795 -0.186184
-0.0112438 1.53796 -0.296364
-0.0553203 1.47216 -0.171127
0.208422 1.41112 -0.380669
0.194773 1.26014 -0.22224
0.193154 1.53503 -0.308053
0.193015 1.53524 -0.312558
0.0438927 1.23047 -0.455355
0.0203637 1.51289 -0.177674
0.0345066 1.51343 -0.180216
-0.0304681 1.45125 -0.169122
0.130262 1.54501 -0.286099
-0.0684675 1.48362 -0.173209
-0.0582594 1.50534 -0.168529
0.132981 1.52073 -0.204191
-0.0727393 1.48672 -0.17413
0.183526 1.50124 -0.224641
0.0127381 1.52967 -0.491925
-0.0144753 1.52392 -0.408905
-0.106868 1.44544 -0.484362
-0.0891878 1.5137 -0.480531
-0.0911714 1.50405 -0.195276
-0.0823608 1.47491 -0.18174
0.151535 1.23489 -0.387961
-0.0350852 1.50739 -0.170258
-0.0973919 1.50485 -0.230965
-0.0832591 1.45574 -0.216981
0.00636537 1.51154 -0.174934
0.123442 1.54883 -0.477086
-0.0269505 1.50849 -0.170798
-0.0870733 1.49329 -0.182103
-0.088883 1.48279 -0.189761
0.213469 1.45016 -0.325326
-0.0966027 1.50515 -0.280452
0.197338 1.47346 -0.220931
0.0357505 1.53198 -0.492953
0.214544 1.24884 -0.460417
-0.0884721 1.36561 -0.318391
-0.0669298 1.22126 -0.374203
0.216611 1.25711 -0.526719
0.188712 1.53696 -0.467059
-0.101698 1.47491 -0.435962
-0.0698791 1.32966 -0.185357
0.222123 1.25115 -0.523509
-0.0900305 1.48691 -0.185258
0.00834249 1.22633 -0.239389
0.120516 1.47748 -0.513445
-0.109992 1.4296 -0.48831
-0.0909301 1.3847 -0.337823
-0.0401896 1.50693 -0.169957
0.209941 1.42099 -0.368744
0.147011 1.5501 -0.269087
-0.0395051 1.45874 -0.170227
-0.0439851 1.50653 -0.169774
0.199281 1.52968 -0.236209
-0.0662684 1.22059 -0.363846
0.183811 1.5129 -0.494679
0.0618791 1.51373 -0.187685
0.0121551 1.52398 -0.386622
-0.0809988 1.50429 -0.489682
-0.0853139 1.51481 -0.476078
0.0802481 1.5353 -0.492685
0.00658818 1.27007 -0.200997
0.223953 1.24215 -0.284482
0.18977 1.53606 -0.399879
0.208932 1.35696 -0.208096
-0.0822441 1.29284 -0.24535
-0.0931252 1.4007 -0.355667
-0.0673667 1.29033 -0.194121
-0.0671152 1.28753 -0.194812
-0.0401607 1.32416 -0.518911
-0.0773944 1.24519 -0.209248
-0.0685311 1.30249 -0.191495
-0.0178542 1.52516 -0.491257
0.174059 1.5242 -0.21502
0.165013 1.24767 -0.206853
0.196943 1.34767 -0.367108
-0.0949985 1.50475 -0.214688
-0.0864356 1.39984 -0.266912
0.136971 1.43243 -0.219763
0.0889546 1.36501 -0.215111
-0.0678196 1.29507 -0.193539
-0.0862216 1.40757 -0.2593
-0.0407459 1.52246 -0.434802
-0.0745816 1.48809 -0.174176
0.126481 1.24709 -0.202905
-0.0193853 1.24206 -0.195327
-0.0119086 1.23153 -0.190647
-0.0819308 1.29994 -0.250303
0.0500754 1.51344 -0.184343
-0.0718231 1.22124 -0.19896
-0.0152982 1.44001 -0.168674
-0.109349 1.43305 -0.487363
0.220156 1.27444 -0.279687
-0.0617428 1.21703 -0.316511
0.177188 1.54889 -0.518679
0.154256 1.23296 -0.354119
0.160852 1.23427 -0.345708
-0.0488749 1.21141 -0.194825
-0.0763366 1.51696 -0.466708
-0.043139 1.22543 -0.189748
-0.0444745 1.22113 -0.188865
-0.0862344 1.41288 -0.253937
-0.0348351 1.45463 -0.169105
-0.0859873 1.41823 -0.249064
0.14362 1.23222 -0.366733
0.184897 1.40731 -0.422028
-0.0523349 1.21386 -0.225517
0.214874 1.29298 -0.302041
-0.0842871 1.36951 -0.30094
0.202835 1.34792 -0.441687
0.183113 1.25091 -0.522806
0.0384865 1.38242 -0.491583
-0.00921892 1.42466 -0.485114
0.025921 1.22676 -0.252106
0.0169222 1.22563 -0.246045
-0.0753299 1.23247 -0.202994
0.176029 1.25107 -0.523053
-0.065175 1.25677 -0.194755
0.00275626 1.51132 -0.174464
0.15844 1.51043 -0.51051
0.148052 1.2332 -0.361335
-0.0360479 1.5336 -0.254235
0.180729 1.49185 -0.479027
0.132175 1.23259 -0.359084
-0.0312503 1.50789 -0.170506
0.0361958 1.30241 -0.205839
-0.0143005 1.24757 -0.197516
0.0995439 1.33412 -0.503547
0.0790418 1.54926 -0.430455
0.22728 1.26194 -0.260517
-0.0846423 1.43684 -0.233047
0.0105828 1.51194 -0.17565
-0.0725164 1.2243 -0.457796
0.223133 1.24178 -0.306021
0.223831 1.24189 -0.298428
-0.0253044 1.22185 -0.216216
0.223698 1.24197 -0.291529
0.190649 1.53995 -0.514877
0.18832 1.23103 -0.297619
0.160377 1.54984 -0.2538
-0.105448 1.28351 -0.50136
0.194326 1.53059 -0.260161
-0.0851228 1.4243 -0.244013
-0.105832 1.27969 -0.501768
-0.0518787 1.47776 -0.492299
-0.0803784 1.25709 -0.219434
-0.0920122 1.43961 -0.395694
-0.0904422 1.30549 -0.536426
0.165655 1.54909 -0.248409
-0.0885694 1.29618 -0.537793
-0.0711219 1.225 -0.516083
-0.0660649 1.26918 -0.194894
-0.0919975 1.31551 -0.535504
-0.0654059 1.48097 -0.173162
-0.105023 1.29285 -0.500332
-0.0993643 1.46643 -0.424938
-0.00318159 1.52178 -0.397539
-0.106658 1.40047 -0.490946
0.151012 1.52322 -0.208075
-0.0964362 1.50831 -0.337456
-0.0190213 1.52454 -0.413873
0.194617 1.52966 -0.252238
-0.0269424 1.44436 -0.485517
-0.0698604 1.21806 -0.197819
0.183574 1.4348 -0.440162
0.181609 1.47668 -0.4677
0.00943938 1.23489 -0.192155
0.228575 1.24205 -0.233764
-0.0935906 1.44482 -0.401166
0.215612 1.25238 -0.475385
-0.0761525 1.22486 -0.477923
0.0922856 1.34007 -0.501508
0.194358 1.50926 -0.224967
0.028153 1.24312 -0.52039
0.231221 1.24292 -0.22214
-0.0841163 1.25248 -0.53047
-0.0951945 1.40668 -0.513928
0.0652614 1.23006 -0.285685
-0.107254 1.46364 -0.482165
-0.0675766 1.22591 -0.515282
0.211198 1.22828 -0.227201
-0.105143 1.27646 -0.501926
0.0010532 1.41422 -0.486384
0.190848 1.54046 -0.512734
-0.0920466 1.42215 -0.378528
-0.0494193 1.31202 -0.52074
0.147132 1.30742 -0.215095
0.189727 1.52551 -0.508872
-0.0747024 1.22719 -0.2018
0.0823188 1.23297 -0.425164
-0.102435 1.36651 -0.491583
0.181265 1.2734 -0.528736
-0.100582 1.47119 -0.430583
-0.106915 1.45749 -0.482579
-0.0926462 1.4115 -0.367156
0.183172 1.46035 -0.456833
-0.106759 1.40279 -0.490808
0.192106 1.51363 -0.224138
0.0588366 1.4285 -0.517077
-0.1067 1.40658 -0.490457
-0.0992358 1.46116 -0.419282
-0.102495 1.37248 -0.49118
0.112698 1.24579 -0.201665
-0.100412 1.33836 -0.493829
-0.0512326 1.5209 -0.443859
-0.034679 1.24096 -0.519781
-0.102588 1.32749 -0.495627
-0.0943983 1.33447 -0.53251
0.228018 1.24249 -0.24608
-0.0598306 1.2188 -0.198328
0.104548 1.38549 -0.216439
-0.0964204 1.50482 -0.222824
-0.103387 1.26204 -0.502874
0.147092 1.25026 -0.522836
0.225076 1.24247 -0.277261
-0.0601645 1.22216 -0.198477
-0.0903646 1.23212 -0.503776
0.102492 1.24524 -0.200747
-0.0930517 1.23599 -0.504466
0.194934 1.50379 -0.225301
-0.106283 1.47903 -0.482529
-0.07169 1.23573 -0.517565
0.120091 1.31828 -0.509484
0.182104 1.46843 -0.462081
0.215129 1.29193 -0.48842
-0.112394 1.50199 -0.481154
0.216785 1.25553 -0.489626
-0.0654059 1.26007 -0.194867
0.209838 1.34908 -0.208067
0.191962 1.36553 -0.386201
-0.0681976 1.29875 -0.19241
-0.111955 1.49326 -0.485558
-0.0244828 1.23704 -0.194264
-0.104551 1.29841 -0.499571
-0.0776928 1.23383 -0.51696
-0.111599 1.50531 -0.508891
-0.0846907 1.22559 -0.517425
-0.112006 1.50531 -0.511055
0.189061 1.53657 -0.433521
-0.0858956 1.3868 -0.280547
0.175714 1.53865 -0.507955
-0.103358 1.31466 -0.497186
-0.110944 1.49215 -0.485053
-0.104127 1.27196 -0.502034
-0.0767138 1.48969 -0.173852
0.01566 1.24287 -0.52043
-0.0861997 1.24803 -0.530696
0.216256 1.28666 -0.494359
0.208848 1.47904 -0.284123
-0.0126677 1.22063 -0.225887
-0.00612507 1.21972 -0.230103
-0.066693 1.28081 -0.195646
0.21656 1.24441 -0.400751
-0.0098263 1.21979 -0.227789
-0.0494594 1.22484 -0.190243
0.105481 1.23303 -0.404894
-0.0595147 1.21523 -0.279672
-0.0971845 1.50575 -0.291953
0.194154 1.35578 -0.376274
-0.104175 1.3097 -0.497993
0.00576264 1.53826 -0.329124
-0.0585398 1.2148 -0.262918
0.0723697 1.35593 -0.496397
0.167498 1.28356 -0.525339
-0.0964002 1.51218 -0.489318
0.0635265 1.5299 -0.347986
-0.10266 1.31968 -0.496372
0.167281 1.25109 -0.52361
0.216513 1.25418 -0.482228
0.129478 1.23232 -0.355204
0.0455977 1.529 -0.362867
0.200807 1.25113 -0.523583
-0.0523436 1.50549 -0.169838
-0.084351 1.22521 -0.510976
0.0550678 1.54843 -0.400749
0.216537 1.28152 -0.501446
0.164105 1.51451 -0.513438
-0.0967152 1.50983 -0.376491
0.207782 1.2497 -0.490877
0.186845 1.26938 -0.529836
0.155202 1.50776 -0.510385
-0.0276053 1.5235 -0.491123
0.0992853 1.23108 -0.317895
0.212919 1.45718 -0.314639
0.220684 1.27004 -0.208674
-0.100354 1.35083 -0.49254
0.210953 1.30961 -0.321114
0.1243 1.23179 -0.348153
0.203817 1.33203 -0.348323
0.193492 1.24407 -0.462298
0.216459 1.2749 -0.510676
0.21705 1.27202 -0.51372
0.218807 1.25718 -0.502991
-0.101747 1.25201 -0.50399
-0.0208367 1.24188 -0.520143
-0.112334 1.50499 -0.511617
0.174443 1.27834 -0.527788
0.166198 1.23578 -0.337808
0.213918 1.25206 -0.526992
0.210232 1.25182 -0.526201
-0.0710334 1.48559 -0.173815
-0.0847866 1.50791 -0.489507
-0.0897559 1.48957 -0.183665
-0.0945239 1.44762 -0.505412
0.217842 1.25667 -0.525488
-0.0395284 1.21478 -0.208848
-0.0353548 1.52372 -0.430061
-0.0934407 1.32403 -0.534039
0.170804 1.28111 -0.52637
0.185615 1.52373 -0.504122
0.218049 1.27994 -0.286779
0.0907418 1.54902 -0.443919
0.203735 1.2478 -0.483834
0.135755 1.23121 -0.375772
-0.0435886 1.46741 -0.490288
0.128037 1.23177 -0.383587
-0.0923093 1.28598 -0.420996
0.0722953 1.24223 -0.19815
0.121583 1.23184 -0.344537
0.151908 1.55022 -0.263982
0.142217 1.23343 -0.373814
0.198138 1.46614 -0.218669
-0.113174 1.50409 -0.512665
0.060432 1.32962 -0.210264
0.0025296 1.22363 -0.23523
0.226864 1.24617 -0.212873
0.121669 1.33136 -0.205561
0.202257 1.36092 -0.432191
-0.0801307 1.46674 -0.180009
0.160756 1.28858 -0.523264
-0.0862046 1.39316 -0.273802
0.22015 1.27409 -0.210086
0.20033 1.33957 -0.357593
0.217618 1.24728 -0.21722
0.215396 1.25283 -0.504518
0.196708 1.5225 -0.228307
0.198359 1.52933 -0.237527
0.116093 1.33621 -0.204627
-0.084848 1.34673 -0.331554
0.203054 1.23019 -0.245706
0.175385 1.27829 -0.220713
-0.0838093 1.36354 -0.308837
0.190802 1.23005 -0.29031
-0.0643733 1.21891 -0.341075
-0.0840423 1.37487 -0.294556
-0.0875427 1.24502 -0.530589
-0.113975 1.50248 -0.49019
-0.00172825 1.26091 -0.199549
-0.0844634 1.35251 -0.323781
0.188487 1.25091 -0.52319
0.228115 1.24196 -0.237173
0.207832 1.49669 -0.260301
-0.0814223 1.23208 -0.516375
0.0134272 1.27747 -0.20201
0.0550753 1.22825 -0.276622
-0.00613861 1.5386 -0.305987
0.207861 1.48103 -0.281554
0.12411 1.54226 -0.292267
-0.0561318 1.21436 -0.24365
-0.0940443 1.46978 -0.501736
-0.0311585 1.44994 -0.486517
-0.099263 1.2477 -0.504246
0.0969095 1.23281 -0.412562
-0.0844431 1.38081 -0.287454
-0.0553217 1.5053 -0.169055
-0.0918792 1.4333 -0.389672
0.217298 1.25683 -0.52587
-0.0261112 1.52458 -0.421468
-0.0921318 1.23397 -0.504284
0.168131 1.479 -0.224029
0.158706 1.29562 -0.218541
0.193798 1.53327 -0.277562
-0.0751295 1.51537 -0.182787
0.189683 1.53606 -0.404331
-0.0632793 1.24419 -0.195983
0.200949 1.22912 -0.25427
-0.103715 1.26928 -0.502116
-0.0529791 1.23873 -0.518714
0.00428179 1.42923 -0.171021
0.190606 1.26401 -0.223027
0.0672081 1.54893 -0.416105
0.190216 1.53596 -0.37398
0.119554 1.51843 -0.201824
-0.0434102 1.22851 -0.505078
0.250471 1.24579 -0.229339
0.13623 1.54679 -0.280303
0.0643269 1.43295 -0.517258
0.0245878 1.52509 -0.377989
-0.0300761 1.23233 -0.193505
0.0454918 1.37675 -0.492084
0.212988 1.22822 -0.222309
-0.0868533 1.3242 -0.362449
0.0248885 1.22955 -0.467404
0.0286907 1.29443 -0.204727
-0.045504 1.53113 -0.238934
-0.0200806 1.53719 -0.279996
0.219672 1.2574 -0.509517
0.0320216 1.411 -0.176661
0.204115 1.25253 -0.219608
0.11044 1.5377 -0.494975
0.0525502 1.32091 -0.209058
-0.0620337 1.47795 -0.172818
-0.0858328 1.28722 -0.541141
-0.0763034 1.51421 -0.180921
-0.101578 1.36231 -0.491762
0.183349 1.44143 -0.443901
0.066127 1.36073 -0.494859
-0.0848824 1.43093 -0.238158
-0.0657789 1.26469 -0.194842
0.08063 1.23008 -0.299469
-0.0773999 1.26611 -0.53021
0.0846202 1.23007 -0.303171
-0.0464627 1.5211 -0.439677
0.0592333 1.53369 -0.492359
-0.0835373 1.44319 -0.227991
-0.0849793 1.46581 -0.207179
-0.07052 1.21951 -0.198304
0.181927 1.49952 -0.484488
-0.00118099 1.43257 -0.171816
0.146552 1.23406 -0.380369
0.210192 1.43105 -0.354768
0.0849326 1.54943 -0.437267
0.156101 1.29214 -0.521778
0.0823137 1.53329 -0.3318
0.190301 1.53834 -0.503284
-0.0538048 1.30627 -0.52154
-0.0897951 1.48742 -0.185419
0.0878849 1.53388 -0.327123
-0.0758632 1.49946 -0.492188
-0.0905045 1.2973 -0.403312
0.128981 1.53865 -0.495734
0.0236326 1.3949 -0.489387
0.141154 1.54764 -0.275075
0.136534 1.55091 -0.488206
0.193259 1.53482 -0.30208
-0.0873991 1.31928 -0.370194
0.229532 1.24233 -0.227084
-0.0652639 1.21978 -0.352512
-0.0359289 1.22902 -0.501171
-0.00368383 1.41903 -0.485574
0.196208 1.52874 -0.242492
0.157278 1.5237 -0.209801
0.144713 1.30046 -0.518409
-0.0981353 1.25425 -0.468501
-0.0799326 1.22103 -0.519674
-0.108627 1.41363 -0.490379
0.142544 1.49494 -0.513784
0.175645 1.24011 -0.427262
0.18115 1.53873 -0.510077
0.189944 1.53292 -0.504259
0.188749 1.52065 -0.510861
0.185889 1.52459 -0.504032
0.197705 1.24562 -0.470908
0.187902 1.5262 -0.505371
-0.0778347 1.24878 -0.21207
0.213906 1.29604 -0.483883
0.212856 1.30086 -0.478817
0.142614 1.551 -0.492731
0.031712 1.22839 -0.256534
-0.0684239 1.22336 -0.420042
0.25121 1.24448 -0.229047
-0.0920321 1.40528 -0.36019
0.0115704 1.53954 -0.339198
0.1901 1.24288 -0.455161
0.0577059 1.52968 -0.353375
-0.106682 1.4721 -0.481894
-0.0411685 1.21406 -0.207681
0.194846 1.52908 -0.249204
-0.0398237 1.46271 -0.488389
0.0473061 1.53289 -0.492856
0.1988 1.25666 -0.221953
0.193622 1.53373 -0.284858
-0.0954313 1.27053 -0.444579
0.136045 1.48951 -0.512655
0.1557 1.54902 -0.259386
0.173377 1.52373 -0.514953
0.137247 1.23283 -0.36641
0.189251 1.52326 -0.509775
-0.0819709 1.50303 -0.173818
0.186939 1.52552 -0.504882
0.127347 1.32621 -0.207163
-0.0611871 1.50545 -0.168133
0.178443 1.52881 -0.514432
0.207257 1.49425 -0.26364
-0.086505 1.50049 -0.167926
0.145723 1.53889 -0.498466
0.211063 1.33997 -0.208516
0.0162863 1.52411 -0.384103
0.0611891 1.54901 -0.408542
0.189467 1.53596 -0.390613
0.201025 1.24688 -0.478046
-0.102781 1.25732 -0.503369
0.102823 1.54916 -0.4568
-0.035001 1.2178 -0.211337
-0.0592264 1.21503 -0.27231
0.212998 1.44046 -0.340301
-0.0967025 1.24202 -0.504759
-0.0179256 1.35183 -0.517456
0.0749724 1.34732 -0.213141
-0.0964869 1.45624 -0.413089
0.21658 1.25769 -0.526641
0.188975 1.53674 -0.443953
0.076135 1.53164 -0.337036
0.169117 1.54746 -0.245231
0.185365 1.52392 -0.503545
-0.106359 1.39713 -0.490976
-0.0575753 1.21467 -0.253035
-0.096569 1.37828 -0.519525
-0.0505879 1.46789 -0.171304
0.120147 1.53826 -0.495161
0.216855 1.25693 -0.526409
0.202457 1.25374 -0.220786
0.184881 1.23318 -0.304627
0.212525 1.44517 -0.333001
-0.0026381 1.22938 -0.483433
0.229105 1.25904 -0.255696
0.187624 1.53962 -0.51589
-0.0970805 1.51043 -0.388904
0.19363 1.51295 -0.224708
0.09513 1.5491 -0.448755
-0.0910887 1.29164 -0.412168
0.190099 1.53841 -0.514108
-0.0894619 1.48461 -0.187727
0.183952 1.51825 -0.499133
-0.0696285 1.32557 -0.18642
0.0476741 1.39733 -0.179671
0.120948 1.2329 -0.390513
0.00179657 1.52281 -0.394005
-0.0852596 1.4849 -0.182263
0.224445 1.25625 -0.536174
-0.101684 1.33275 -0.494863
-0.0646055 1.25271 -0.19502
-0.0934637 1.51317 -0.485434
0.190579 1.54016 -0.514014
-0.0729515 1.27567 -0.527285
-0.0817422 1.27804 -0.235235
0.114682 1.47377 -0.512514
0.190139 1.53785 -0.514862
0.190011 1.53809 -0.514327
-0.0217572 1.43814 -0.485499
0.161866 1.46985 -0.223165
0.19307 1.22978 -0.282972
0.0719725 1.23281 -0.43342
0.174373 1.5499 -0.517635
0.191324 1.53647 -0.512064
-0.0739348 1.22411 -0.516709
-0.0606095 1.22692 -0.199007
-0.0935831 1.50449 -0.207814
0.180465 1.24134 -0.436248
0.125711 1.51946 -0.202812
0.105005 1.23081 -0.324486
0.130234 1.54986 -0.483157
0.111241 1.39507 -0.217374
-0.0873518 1.34955 -0.300881
-0.0838345 1.35904 -0.314926
-0.0157178 1.43132 -0.485425
-0.0583993 1.29991 -0.522028
0.0969245 1.37535 -0.215591
-0.0854581 1.34448 -0.294727
-0.0770852 1.22521 -0.485517
-0.0157752 1.22216 -0.223175
0.217199 1.25937 -0.525765
0.0378287 1.52674 -0.368113
0.151263 1.50383 -0.511765
0.188172 1.3894 -0.407107
-0.112649 1.4995 -0.475345
-0.109086 1.48951 -0.483929
-0.0629537 1.21801 -0.32838
0.131635 1.48585 -0.51274
0.183302 1.41513 -0.427464
-0.0483649 1.50593 -0.169993
-0.0855367 1.47013 -0.202902
0.184353 1.27119 -0.529208
-0.0677207 1.52136 -0.195838
-0.0896261 1.48854 -0.184691
0.21832 1.26263 -0.522546
0.193666 1.53349 -0.281266
0.202862 1.25915 -0.532971
0.217335 1.24434 -0.391898
0.131833 1.42462 -0.21889
0.175197 1.52571 -0.514698
-0.086561 1.49048 -0.182415
0.0338058 1.23061 -0.461934
-0.0848653 1.3416 -0.338547
-0.0681243 1.223 -0.409308
-0.0663981 1.2769 -0.195476
0.00210487 1.23389 -0.191286
-0.0394223 1.22479 -0.19108
0.0700637 1.37763 -0.189053
-0.0905841 1.37866 -0.331387
-0.0749801 1.2296 -0.202166
-0.0113153 1.43793 -0.169806
-0.0582999 1.51851 -0.491658
0.20635 1.50621 -0.246509
0.182939 1.42347 -0.432686
-0.00087373 1.53839 -0.315904
0.137008 1.53885 -0.49658
0.193614 1.25092 -0.523404
-0.108921 1.43754 -0.486358
-0.0875173 1.49908 -0.168838
-0.0857218 1.33599 -0.34628
-0.0175123 1.50951 -0.171641
0.0704914 1.43819 -0.517253
-0.109886 1.50587 -0.506818
0.216536 1.28389 -0.498139
-0.0978968 1.49996 -0.494201
-0.0843193 1.33851 -0.287785
-0.0657107 1.52336 -0.200154
0.206153 1.25759 -0.533653
-0.0619499 1.5255 -0.207854
-0.0973845 1.50479 -0.262865
0.0152024 1.51236 -0.176644
-0.0752287 1.27092 -0.529128
-0.109956 1.49488 -0.466915
0.210564 1.30581 -0.47446
0.216605 1.28611 -0.294123
0.188472 1.53678 -0.458351
-0.0611496 1.2161 -0.305571
0.214652 1.25039 -0.467198
0.209599 1.22732 -0.232993
-0.00659044 1.43533 -0.170594
0.0526847 1.37111 -0.492693
0.19607 1.48607 -0.224664
-0.0933205 1.39649 -0.350809
0.0787133 1.35089 -0.498092
0.126362 1.24886 -0.522459
-0.102329 1.51279 -0.432329
-0.0836234 1.44978 -0.221796
0.190998 1.53595 -0.364442
0.106432 1.32864 -0.505115
0.0274613 1.41432 -0.175164
0.0356123 1.22903 -0.260087
-0.0261574 1.34196 -0.518382
0.218966 1.25259 -0.528554
-0.0218125 1.34717 -0.517869
-0.0441579 1.24012 -0.519332
-0.0317327 1.53504 -0.260877
0.0639743 1.24141 -0.197092
-0.103139 1.25987 -0.503098
0.025212 1.51321 -0.178509
-0.070471 1.28057 -0.525435
-0.096223 1.39256 -0.516063
0.194614 1.53001 -0.254701
0.016578 1.2288 -0.472367
-0.0541951 1.21409 -0.233887
0.228201 1.24213 -0.241061
0.0819085 1.35577 -0.213671
-0.0884239 1.47764 -0.194682
0.118201 1.40511 -0.218293
-0.0608715 1.21551 -0.293084
-0.0665797 1.28764 -0.523794
-0.0305882 1.21964 -0.213246
-0.0628011 1.2373 -0.518274
-0.0696702 1.2239 -0.441509
-0.078274 1.22541 -0.492415
0.216966 1.26832 -0.517637
0.190027 1.38126 -0.400428
-0.0770618 1.24236 -0.207225
0.21173 1.25131 -0.497856
-0.104513 1.27413 -0.501993
-0.0308823 1.5238 -0.425954
0.250325 1.24609 -0.229126
-0.0836998 1.33266 -0.281171
0.126858 1.31324 -0.511677
0.0421576 1.22903 -0.266048
0.0100626 1.42538 -0.170986
0.197525 1.22916 -0.268171
0.206509 1.32507 -0.339452
0.184937 1.52208 -0.502658
0.192857 1.51621 -0.224409
0.199096 1.22934 -0.261331
-0.0859967 1.48767 -0.182209
-0.0405715 1.53257 -0.247135
0.102133 1.46423 -0.514272
0.24951 1.24642 -0.229446
-0.0693754 1.32191 -0.187209
0.0512227 1.22776 -0.273604
0.0533105 1.39216 -0.181645
0.0883344 1.45264 -0.51501
0.0920436 1.5146 -0.196126
-0.10784 1.44115 -0.485401
0.209405 1.47086 -0.295781
-0.0913617 1.39107 -0.344254
0.191214 1.37237 -0.39254
-0.0825111 1.30672 -0.255723
0.196695 1.52864 -0.240301
-0.107264 1.46109 -0.482316
-0.0921088 1.41647 -0.372474
0.206724 1.32224 -0.460407
0.207418 1.49054 -0.268302
-0.0765728 1.23926 -0.2059
0.0210295 1.28602 -0.203151
0.108449 1.46923 -0.513316
0.176824 1.23453 -0.321396
-0.100806 1.3452 -0.493187
-0.0972513 1.50698 -0.313424
0.196576 1.48029 -0.222583
0.204848 1.51008 -0.23819
0.180319 1.23465 -0.314194
0.194191 1.53118 -0.26374
-0.098081 1.24437 -0.48171
-0.0866717 1.49973 -0.167567
-0.0947014 1.48063 -0.497965
0.18472 1.53894 -0.512608
0.0538131 1.23103 -0.448119
0.153458 1.53888 -0.500171
0.205937 1.32703 -0.456758
0.162219 1.51306 -0.512692
-0.0618042 1.23558 -0.197939
0.218404 1.25348 -0.539701
0.0680427 1.51382 -0.189403
0.0957305 1.45903 -0.514201
-0.106543 1.46799 -0.481902
0.226272 1.24279 -0.26299
0.207351 1.36782 -0.207507
-0.109997 1.49124 -0.484514
-0.0326781 1.21857 -0.21235
0.193276 1.26471 -0.530482
-0.0958437 1.36441 -0.525357
0.0028785 1.53811 -0.323391
-0.100243 1.35637 -0.492007
0.116292 1.54951 -0.4706
-0.104889 1.28809 -0.500818
-0.0275889 1.2212 -0.214851
0.00296776 1.24258 -0.520075
0.222274 1.26959 -0.272781
0.212585 1.3022 -0.312623
0.170142 1.28371 -0.220168
0.189082 1.53812 -0.47952
-0.106758 1.47521 -0.482318
0.191051 1.54072 -0.511662
-0.112497 1.50084 -0.478484
0.218209 1.26091 -0.524107
0.190403 1.53007 -0.505902
0.22707 1.24263 -0.251316
0.102524 1.51579 -0.198497
-0.0785079 1.22174 -0.518533
0.173457 1.54697 -0.242234
-0.0961053 1.49094 -0.496801
0.0313861 1.38842 -0.490412
0.189382 1.53595 -0.38462
-0.00820652 1.25397 -0.199108
0.140742 1.31354 -0.21347
-0.0823333 1.28612 -0.240889
-0.0354939 1.22804 -0.191967
0.182788 1.50475 -0.488391
-0.0827878 1.25591 -0.529924
-0.075962 1.22293 -0.517326
0.0124864 1.22597 -0.242784
-0.0840859 1.46035 -0.212711
-0.0854894 1.23055 -0.516079
-0.0812895 1.47113 -0.180731
-0.0260873 1.44754 -0.168758
-0.0829455 1.31146 -0.259758
-0.0685823 1.22365 -0.431295
-0.0904964 1.23226 -0.503931
-0.0827823 1.4973 -0.494931
-0.0771565 1.22226 -0.51785
-0.0964229 1.509 -0.349565
0.188401 1.53679 -0.454018
0.0168434 1.40069 -0.488328
-0.10513 1.28577 -0.501067
-0.10608 1.39299 -0.491055
0.193458 1.53458 -0.297429
0.168497 1.5184 -0.513359
0.00864137 1.2292 -0.476983
-0.0803135 1.26056 -0.530155
-0.0109938 1.22859 -0.487939
0.224779 1.26568 -0.266555
0.180042 1.53008 -0.51499
-0.0970081 1.26429 -0.453574
0.181037 1.4852 -0.474371
-0.0868118 1.47412 -0.198657
0.0581335 1.36697 -0.493399
0.19119 1.53708 -0.513402
0.0687746 1.33984 -0.211923
-0.0490269 1.21205 -0.199871
0.198361 1.52168 -0.229885
-0.0690369 1.31452 -0.1888
-0.0629285 1.2934 -0.522599
-0.0705592 1.49523 -0.49248
-0.0613186 1.2313 -0.198451
0.21047 1.46614 -0.302049
0.170182 1.52066 -0.513483
-0.0637622 1.50556 -0.167914
-0.0125384 1.51004 -0.172409
0.0731269 1.5489 -0.423525
-0.0223055 1.50898 -0.17106
-0.103369 1.26409 -0.502623
0.0971504 1.51514 -0.197523
0.232207 1.25562 -0.249551
-0.0150799 1.53631 -0.288285
0.133842 1.32011 -0.210584
-0.0756537 1.23491 -0.203912
-0.0624824 1.2397 -0.196949
-0.0826503 1.22528 -0.504763
-0.0676386 1.22184 -0.387429
0.189267 1.536 -0.40988
-0.0820011 1.27095 -0.230543
-0.0711916 1.22417 -0.449767
-0.0849815 1.22565 -0.514342
-0.0953514 1.24003 -0.504818
-0.0883385 1.48099 -0.19174
-0.0347201 1.45555 -0.487057
-0.0881359 1.3148 -0.376648
0.18887 1.53638 -0.428894
0.200773 1.52994 -0.232033
-0.0980091 1.25895 -0.461339
0.0680702 1.52976 -0.343701
-0.0447339 1.31829 -0.51942
0.00970191 1.40651 -0.487264
-0.0559196 1.2271 -0.511319
-0.0825093 1.31999 -0.26776
-0.0818298 1.26484 -0.22609
0.202052 1.40448 -0.20828
0.0159736 1.42176 -0.172296
0.186206 1.39775 -0.414081
0.192222 1.51922 -0.223719
0.0886974 1.53611 -0.493476
0.0167008 1.23558 -0.19267
0.177831 1.27584 -0.528324
-0.103484 1.50881 -0.497466
-0.0945002 1.27511 -0.437217
-0.0934101 1.28041 -0.429217
-0.0787754 1.25293 -0.215531
0.195863 1.22887 -0.275184
0.220662 1.2574 -0.517397
-0.0196391 1.2287 -0.492443
-0.0506229 1.22824 -0.508745
-0.100363 1.24895 -0.504216
0.0821491 1.24322 -0.198617
0.0211079 1.22576 -0.248897
-0.0362308 1.32917 -0.518591
-0.0661575 1.27335 -0.195345
0.208147 1.3168 -0.464896
0.183177 1.45048 -0.449798
0.160291 1.23664 -0.401517
0.20635 1.22863 -0.239596
0.184115 1.5205 -0.501055
-0.0983684 1.5048 -0.237977
-0.0304906 1.33651 -0.518534
-0.0921791 1.50425 -0.201927
-0.0970198 1.50495 -0.271677
-0.107201 1.49238 -0.462145
0.190478 1.54066 -0.498937
0.189703 1.53595 -0.503757
-0.0982652 1.24543 -0.504386
0.19043 1.54083 -0.502048
0.117004 1.54017 -0.299729
-0.0433976 1.46222 -0.171186
-0.0746414 1.22458 -0.469381
-0.0849129 1.22527 -0.518358
0.184785 1.24219 -0.444885
-0.0803828 1.22541 -0.498629
0.203206 1.51419 -0.231219
-0.088309 1.37204 -0.324264
-0.082757 1.2293 -0.521247
-0.106205 1.47694 -0.482385
-0.111536 1.4971 -0.471194
0.187346 1.50676 -0.225771
0.19543 1.52894 -0.247012
-0.0461471 1.22524 -0.189713
-0.102452 1.25498 -0.503719
-0.0668498 1.28453 -0.195533
0.0890737 1.23272 -0.419473
-0.0659161 1.5196 -0.457266
-0.00277777 1.51095 -0.173938
0.165691 1.28847 -0.220425
-0.0896172 1.23126 -0.503751
0.0757132 1.23087 -0.295156
0.20874 1.31697 -0.329842
-0.0761474 1.23717 -0.204941
-0.0974231 1.24339 -0.504624
-0.0224988 1.22238 -0.218024
0.029448 1.51327 -0.179308
-0.0927101 1.23496 -0.504415
0.0855639 1.34549 -0.49955
-0.0825863 1.32678 -0.274587
0.109608 1.54913 -0.46403
0.0558361 1.51351 -0.186003
0.234749 1.25307 -0.244748
0.0706159 1.23076 -0.290565
-0.0255307 1.53687 -0.271171
0.216611 1.25831 -0.526136
-0.0896278 1.30259 -0.395346
0.194014 1.53262 -0.272418
-0.054581 1.52801 -0.222351
-0.0367613 1.21701 -0.210444
-0.028171 1.22913 -0.49703
-0.103374 1.2668 -0.502266
0.111209 1.53826 -0.305447
-0.0939383 1.23779 -0.504654
-0.0625832 1.22631 -0.513824
0.189686 1.53935 -0.488667
-0.0018755 1.22111 -0.232655
0.205415 1.50918 -0.239778
0.0634153 1.23201 -0.440468
0.186118 1.26822 -0.223562
-0.0891928 1.30785 -0.386901
0.169135 1.52423 -0.21343
-0.0506616 1.53024 -0.230282
0.189014 1.52402 -0.222848
-0.00927212 1.24243 -0.520152
-0.0810837 1.51574 -0.471319
-0.0730504 1.2231 -0.199857
0.204994 1.33458 -0.450988
-0.10582 1.48854 -0.457029
-0.0196273 1.22235 -0.220114
0.17443 1.52482 -0.514787
-0.0977932 1.23922 -0.488251
0.0710999 1.53449 -0.492124
-0.0692602 1.31879 -0.187964
0.111551 1.32479 -0.506816
0.117255 1.23196 -0.338773
-0.0678395 1.22244 -0.39858
0.051559 1.52956 -0.358524
-0.0866362 1.32982 -0.354355
0.152776 1.30171 -0.216259
0.107848 1.23101 -0.327865
