ply
format ascii 1.0
element vertex 1540
property float x
property float y
property float z
end_header
-0.0606029 1.42739 -0.221874
-0.0624342 1.42637 -0.222466
-0.122036 1.47823 -0.282227
-0.122014 1.4764 -0.282937
-0.121313 1.4813 -0.30047
-0.127396 1.46796 -0.282176
-0.155955 1.39408 -0.250399
-0.125839 1.44471 -0.284388
-0.0987335 1.40977 -0.228504
-0.153523 1.38099 -0.22953
-0.151092 1.36607 -0.190692
-0.138357 1.36511 -0.188857
-0.14151 1.36495 -0.189442
-0.127276 1.36733 -0.185604
-0.138453 1.36854 -0.209038
-0.111123 1.37825 -0.181918
-0.104965 1.38209 -0.189647
-0.112839 1.37704 -0.182388
-0.107973 1.37995 -0.191224
-0.111735 1.37768 -0.193213
-0.0796433 1.41876 -0.224544
-0.0803492 1.41878 -0.224297
-0.0250346 1.4834 -0.202403
-0.0470275 1.43263 -0.217241
-0.0291637 1.45192 -0.208163
-0.125329 1.45061 -0.285335
-0.0652332 1.41335 -0.160971
-0.12802 1.43071 -0.280166
-0.129113 1.42306 -0.277989
-0.128048 1.46789 -0.281458
-0.092977 1.43289 -0.263872
-0.0934114 1.4348 -0.267974
-0.127239 1.36742 -0.185417
-0.119583 1.39956 -0.238046
-0.0455058 1.43419 -0.216806
-0.0979755 1.38601 -0.186994
-0.10518 1.3796 -0.17905
-0.146014 1.39374 -0.247015
-0.129879 1.37265 -0.184577
-0.0705579 1.40672 -0.163453
-0.0675638 1.41021 -0.17704
-0.0595735 1.41941 -0.158215
-0.0626291 1.41656 -0.159747
-0.0573377 1.42268 -0.157126
-0.0895381 1.43025 -0.109279
-0.0192651 1.46232 -0.159433
-0.0203551 1.4586 -0.159929
-0.0908856 1.39067 -0.184653
-0.0918164 1.38803 -0.171321
-0.115009 1.40973 -0.16255
-0.0960378 1.44447 -0.278728
-0.124702 1.45962 -0.285061
-0.0220064 1.45542 -0.160575
-0.0303555 1.44523 -0.163544
-0.107976 1.37904 -0.180684
-0.0480975 1.44638 -0.149089
-0.112286 1.4093 -0.174674
-0.153246 1.38921 -0.130823
-0.141004 1.39071 -0.127049
-0.133227 1.40754 -0.126719
-0.153058 1.42437 -0.0908655
-0.143647 1.41869 -0.104602
-0.145079 1.46453 -0.0744596
-0.161417 1.45512 -0.0746252
-0.161997 1.42991 -0.0802074
-0.0816105 1.43617 -0.104462
-0.123205 1.46753 -0.284626
-0.0809273 1.43712 -0.103974
-0.0758321 1.44198 -0.100148
-0.0742962 1.44373 -0.0987185
-0.0842018 1.43413 -0.105987
-0.0737534 1.4448 -0.0981487
-0.0806744 1.43787 -0.103875
-0.130724 1.47809 -0.0670113
-0.12621 1.48134 -0.0665174
-0.129746 1.47895 -0.0666131
-0.12691 1.48042 -0.066399
-0.15664 1.4266 -0.087245
-0.152464 1.42387 -0.0917003
-0.148967 1.42171 -0.0966102
-0.13201 1.46036 -0.0792497
-0.0451435 1.45394 -0.146593
-0.145996 1.41987 -0.10118
-0.157881 1.37882 -0.216763
-0.168081 1.37851 -0.21788
-0.160204 1.4665 -0.0914311
-0.152559 1.45477 -0.0742871
-0.144563 1.46499 -0.0750138
-0.11651 1.41032 -0.159271
-0.0502453 1.44004 -0.151557
-0.0943383 1.46779 -0.0915993
-0.0384338 1.4403 -0.213236
-0.0917988 1.42915 -0.257379
-0.10712 1.40999 -0.187041
-0.0369763 1.44138 -0.212768
-0.0475178 1.42867 -0.170626
-0.0353413 1.50115 -0.133535
-0.0350644 1.55897 -0.147812
-0.0985909 1.4214 -0.113389
-0.0770501 1.53995 -0.105911
-0.0723869 1.58951 -0.151994
-0.0669353 1.58834 -0.151284
-0.055983 1.57224 -0.174299
-0.126093 1.569 -0.0786978
-0.160524 1.58609 -0.0853298
-0.0787665 1.51146 -0.0828286
-0.0857153 1.52939 -0.0924074
-0.0973519 1.4674 -0.0905719
-0.0609984 1.55508 -0.12915
-0.084725 1.59675 -0.155994
-0.0971392 1.51458 -0.0784078
-0.0607221 1.47565 -0.112225
-0.0730619 1.54483 -0.11245
-0.11334 1.46452 -0.0854297
-0.0788812 1.53806 -0.103444
-0.132934 1.60214 -0.137455
-0.18291 1.59824 -0.112046
-0.0916885 1.42788 -0.253914
-0.0700345 1.54789 -0.117457
-0.0869791 1.43269 -0.107658
-0.0724758 1.40544 -0.17876
-0.0800609 1.43856 -0.103562
-0.122036 1.61335 -0.159838
-0.160077 1.62247 -0.165126
-0.161791 1.62248 -0.165457
-0.164965 1.62147 -0.166952
-0.15546 1.60542 -0.141211
-0.143262 1.60376 -0.139183
-0.0831403 1.5784 -0.130489
-0.112254 1.60878 -0.158628
-0.104089 1.37978 -0.178347
-0.0826665 1.5886 -0.20167
-0.104318 1.59945 -0.208675
-0.0587224 1.42062 -0.173984
-0.105107 1.606 -0.160606
-0.108033 1.60655 -0.161822
-0.093686 1.60145 -0.158079
-0.0868468 1.58074 -0.131035
-0.06203 1.58441 -0.151131
-0.0903599 1.59971 -0.157347
-0.122903 1.59834 -0.135855
-0.0521911 1.55645 -0.200074
-0.0613284 1.57538 -0.200481
-0.0709432 1.5812 -0.199355
-0.0852001 1.5904 -0.20246
-0.043472 1.45946 -0.144653
-0.0571545 1.57096 -0.20341
-0.0617096 1.57438 -0.230968
-0.0965161 1.60285 -0.158799
-0.125925 1.59977 -0.136374
-0.0903295 1.54814 -0.276138
-0.0548301 1.56567 -0.205035
-0.0346501 1.49399 -0.135411
-0.0202607 1.48724 -0.160386
-0.0530604 1.42464 -0.172409
-0.0425374 1.43713 -0.215259
-0.114 1.40947 -0.164899
-0.0230374 1.53822 -0.148094
-0.160643 1.4285 -0.0810272
-0.0445076 1.53224 -0.129144
-0.0635425 1.55623 -0.128392
-0.0663501 1.56254 -0.129194
-0.104244 1.50597 -0.0710167
-0.064278 1.47465 -0.10913
-0.0784835 1.5585 -0.262138
-0.0771484 1.44119 -0.101274
-0.159152 1.50793 -0.283643
-0.158068 1.50751 -0.283459
-0.158483 1.50771 -0.283614
-0.0794223 1.57523 -0.130121
-0.121954 1.48091 -0.298185
-0.156553 1.52673 -0.308618
-0.122176 1.47992 -0.281635
-0.155929 1.52648 -0.308853
-0.0805249 1.59452 -0.154962
-0.0574213 1.5718 -0.180973
-0.179634 1.53803 -0.300737
-0.177592 1.5369 -0.301289
-0.181384 1.53895 -0.300105
-0.131916 1.5413 -0.288298
-0.100834 1.53922 -0.287507
-0.0333466 1.44549 -0.210937
-0.136803 1.39385 -0.263324
-0.163751 1.60464 -0.234113
-0.0449935 1.43044 -0.169791
-0.138445 1.57552 -0.272224
-0.13929 1.57905 -0.269847
-0.103315 1.41156 -0.194317
-0.11009 1.55447 -0.0768629
-0.120327 1.60572 -0.212949
-0.125123 1.60682 -0.215117
-0.0359027 1.44249 -0.212277
-0.122887 1.60649 -0.214115
-0.16078 1.60624 -0.207292
-0.160887 1.50877 -0.283133
-0.163628 1.60685 -0.199329
-0.0754957 1.59169 -0.153701
-0.0780138 1.59324 -0.154344
-0.162208 1.60662 -0.203617
-0.140393 1.62128 -0.163759
-0.134172 1.60682 -0.218725
-0.140113 1.58181 -0.267793
-0.141211 1.5851 -0.264946
-0.178942 1.60084 -0.239175
-0.193077 1.59378 -0.24367
-0.194816 1.59282 -0.24418
-0.166464 1.60352 -0.234985
-0.101593 1.58893 -0.13331
-0.168245 1.60312 -0.235559
-0.0521123 1.55793 -0.199867
-0.209359 1.5831 -0.251006
-0.227848 1.56642 -0.25436
-0.227248 1.56558 -0.257372
-0.231463 1.55576 -0.263364
-0.142584 1.58831 -0.26064
-0.143756 1.59064 -0.256422
-0.228388 1.56518 -0.253197
-0.222894 1.57068 -0.256299
-0.186336 1.54124 -0.298297
-0.0927106 1.54646 -0.279406
-0.136279 1.51036 -0.312495
-0.151465 1.60191 -0.23196
-0.149053 1.59941 -0.237751
-0.144871 1.59213 -0.251889
-0.144005 1.46503 -0.0748072
-0.188914 1.59615 -0.242408
-0.24536 1.51055 -0.243994
-0.262135 1.49318 -0.2227
-0.121151 1.48203 -0.301442
-0.262204 1.494 -0.226868
-0.262108 1.49465 -0.228313
-0.262215 1.49541 -0.230015
-0.240114 1.50576 -0.246018
-0.144429 1.36878 -0.212028
-0.250083 1.51528 -0.254028
-0.247483 1.51913 -0.257019
-0.242391 1.54413 -0.255913
-0.242398 1.54241 -0.256259
-0.244537 1.53448 -0.258089
-0.245368 1.53243 -0.258415
-0.250288 1.51446 -0.251079
-0.139918 1.36506 -0.189156
-0.2421 1.54844 -0.255766
-0.228355 1.56324 -0.257362
-0.228152 1.56387 -0.257429
-0.228577 1.5628 -0.257278
-0.243672 1.55682 -0.249013
-0.0560018 1.57288 -0.17105
-0.24536 1.55682 -0.246498
-0.250635 1.51554 -0.252988
-0.11926 1.49036 -0.0667621
-0.25032 1.5148 -0.253248
-0.249872 1.51877 -0.251054
-0.230508 1.56181 -0.257555
-0.228941 1.56257 -0.257265
-0.197074 1.59095 -0.244931
-0.252773 1.5569 -0.235384
-0.219195 1.55125 -0.276589
-0.236614 1.56056 -0.254328
-0.120605 1.48934 -0.311341
-0.056593 1.57203 -0.177453
-0.23734 1.55982 -0.254538
-0.238131 1.55644 -0.255213
-0.261824 1.49709 -0.234743
-0.24228 1.60009 -0.201994
-0.137883 1.51155 -0.312372
-0.239175 1.60282 -0.200401
-0.226611 1.56642 -0.256394
-0.158641 1.42732 -0.0836034
-0.253304 1.58836 -0.207844
-0.1438 1.62162 -0.163947
-0.246358 1.52873 -0.258423
-0.149566 1.45484 -0.0736251
-0.250787 1.52048 -0.249415
-0.184512 1.54053 -0.298905
-0.251497 1.59778 -0.154545
-0.218973 1.57399 -0.254959
-0.082267 1.43605 -0.10483
-0.0564631 1.57253 -0.165627
-0.229078 1.61164 -0.194729
-0.152004 1.42306 -0.092329
-0.207691 1.58401 -0.250114
-0.129365 1.46039 -0.0809307
-0.219278 1.6215 -0.143377
-0.222353 1.61984 -0.144075
-0.0697506 1.42302 -0.223348
-0.214546 1.62297 -0.142388
-0.0578451 1.47642 -0.115226
-0.205907 1.58493 -0.249092
-0.211174 1.62442 -0.186238
-0.224688 1.61572 -0.19225
-0.127496 1.36749 -0.185526
-0.14634 1.60384 -0.139761
-0.226438 1.56638 -0.256006
-0.190101 1.50894 -0.278739
-0.216337 1.55052 -0.278774
-0.211457 1.58147 -0.252034
-0.173164 1.60218 -0.237286
-0.176882 1.62364 -0.174016
-0.175891 1.6233 -0.173201
-0.148068 1.62162 -0.164341
-0.26535 1.56412 -0.21502
-0.226438 1.56647 -0.255705
-0.167049 1.62234 -0.168866
-0.220997 1.55195 -0.275391
-0.131693 1.60662 -0.217561
-0.159241 1.605 -0.211309
-0.180108 1.60659 -0.12672
-0.161033 1.60742 -0.141985
-0.0603673 1.5747 -0.201435
-0.180794 1.60467 -0.122737
-0.181667 1.60163 -0.117654
-0.166554 1.62105 -0.168134
-0.166624 1.62149 -0.16841
-0.0732653 1.4455 -0.0977491
-0.178074 1.60936 -0.13877
-0.179098 1.60818 -0.132943
-0.108655 1.60676 -0.162237
-0.108915 1.60722 -0.162411
-0.168211 1.62286 -0.169422
-0.106885 1.60563 -0.1609
-0.106539 1.6059 -0.160967
-0.168994 1.50808 -0.282092
-0.193685 1.62787 -0.181489
-0.163504 1.60713 -0.140333
-0.164758 1.5881 -0.0864868
-0.105779 1.55052 -0.0766676
-0.172646 1.58426 -0.0855951
-0.179176 1.58922 -0.0899364
-0.183054 1.58839 -0.0905537
-0.230152 1.56201 -0.25753
-0.183907 1.58809 -0.0907508
-0.20801 1.62498 -0.140695
-0.202887 1.62529 -0.139662
-0.0739481 1.5907 -0.153298
-0.264775 1.56232 -0.214974
-0.227121 1.61342 -0.193515
-0.240565 1.60706 -0.149591
-0.2187 1.57253 -0.0880728
-0.205858 1.54916 -0.287841
-0.163281 1.58695 -0.086135
-0.170405 1.58406 -0.0847319
-0.0244957 1.54147 -0.147789
-0.224876 1.56854 -0.0904304
-0.253063 1.53705 -0.125728
-0.0396628 1.43592 -0.167619
-0.0731574 1.58947 -0.152339
-0.186061 1.57784 -0.0911711
-0.243148 1.52796 -0.114526
-0.185648 1.58295 -0.0955836
-0.113789 1.60946 -0.158771
-0.23925 1.52516 -0.111227
-0.162217 1.58645 -0.0859145
-0.157632 1.58506 -0.0847858
-0.120439 1.56495 -0.0781651
-0.0581475 1.55118 -0.129033
-0.0770265 1.50483 -0.083842
-0.226049 1.51476 -0.0932207
-0.237576 1.52388 -0.109048
-0.227176 1.51653 -0.0945779
-0.238728 1.55803 -0.0983077
-0.267598 1.51008 -0.133076
-0.136801 1.51083 -0.312552
-0.236011 1.56039 -0.0964263
-0.0260407 1.46313 -0.205118
-0.268237 1.50836 -0.134295
-0.263807 1.51847 -0.126514
-0.0223571 1.48601 -0.15748
-0.174911 1.62271 -0.17268
-0.249443 1.59903 -0.153551
-0.261447 1.54864 -0.143701
-0.262253 1.55012 -0.147376
-0.246743 1.52621 -0.25823
-0.249419 1.54602 -0.107784
-0.025985 1.48671 -0.202036
-0.224875 1.56833 -0.256825
-0.226148 1.55403 -0.270977
-0.227396 1.55456 -0.269154
-0.14681 1.60633 -0.22555
-0.0944789 1.38548 -0.172475
-0.261336 1.5584 -0.223137
-0.041983 1.43362 -0.168537
-0.157404 1.52708 -0.308199
-0.264108 1.55274 -0.156205
-0.174719 1.60979 -0.155212
-0.242695 1.55433 -0.101449
-0.233334 1.56223 -0.0948571
-0.265379 1.51523 -0.129138
-0.266426 1.58159 -0.164287
-0.270021 1.55619 -0.179172
-0.06115 1.57472 -0.227109
-0.270132 1.55699 -0.191157
-0.26604 1.56735 -0.214532
-0.020007 1.47446 -0.159981
-0.266072 1.56954 -0.214155
-0.265808 1.56579 -0.214923
-0.247892 1.54835 -0.105921
-0.253434 1.53775 -0.127622
-0.242195 1.50575 -0.240933
-0.269357 1.50449 -0.13681
-0.24688 1.52403 -0.257792
-0.241252 1.50578 -0.243531
-0.27174 1.5684 -0.170122
-0.195456 1.62812 -0.181969
-0.192197 1.62739 -0.180907
-0.19961 1.62771 -0.182997
-0.270869 1.48961 -0.1446
-0.272468 1.5058 -0.193245
-0.241229 1.50584 -0.243778
-0.241752 1.51078 -0.246916
-0.254154 1.43964 -0.163618
-0.237273 1.52365 -0.107306
-0.250371 1.53414 -0.119699
-0.253704 1.47318 -0.147322
-0.106801 1.60546 -0.160748
-0.241595 1.46626 -0.12117
-0.216544 1.57371 -0.0873827
-0.262426 1.52093 -0.124431
-0.245571 1.46666 -0.124329
-0.224716 1.47194 -0.0964725
-0.240579 1.52597 -0.112388
-0.225845 1.47277 -0.0970117
-0.214793 1.49689 -0.0849865
-0.115999 1.56085 -0.0775293
-0.216862 1.49959 -0.0860725
-0.226741 1.51564 -0.0939523
-0.241769 1.5513 -0.255898
-0.225473 1.5137 -0.0927332
-0.159612 1.42771 -0.0821356
-0.188786 1.46803 -0.0903956
-0.240423 1.55667 -0.252955
-0.152811 1.62155 -0.164574
-0.0518242 1.55337 -0.20032
-0.196723 1.44841 -0.100017
-0.166398 1.4677 -0.0881348
-0.168966 1.37913 -0.217844
-0.0179426 1.48819 -0.164569
-0.249472 1.46848 -0.134868
-0.171419 1.46458 -0.087071
-0.186824 1.46628 -0.0894257
-0.0203247 1.531 -0.149747
-0.191297 1.45695 -0.0891709
-0.186972 1.45734 -0.087565
-0.155427 1.42593 -0.0887805
-0.189824 1.45687 -0.0876356
-0.0719956 1.58937 -0.152727
-0.263098 1.51962 -0.125531
-0.189287 1.45609 -0.0876784
-0.188084 1.46751 -0.0904857
-0.106797 1.60527 -0.160615
-0.220961 1.57111 -0.0888986
-0.1611 1.46983 -0.0892329
-0.135969 1.57525 -0.0807391
-0.0718264 1.54598 -0.114832
-0.204543 1.48508 -0.0804093
-0.19938 1.48082 -0.0805512
-0.0563102 1.57175 -0.162455
-0.0630655 1.55781 -0.131105
-0.0669567 1.55131 -0.122214
-0.0397038 1.4389 -0.213785
-0.22405 1.50989 -0.0904362
-0.224442 1.51129 -0.0913226
-0.223423 1.50837 -0.0897956
-0.0200361 1.47381 -0.159935
-0.0650911 1.55374 -0.124861
-0.238367 1.60855 -0.148794
-0.194629 1.47659 -0.0851583
-0.1951 1.47703 -0.0846086
-0.18693 1.46643 -0.0898004
-0.168441 1.58951 -0.0870278
-0.118805 1.37487 -0.197078
-0.104753 1.41081 -0.191309
-0.167294 1.58927 -0.0867605
-0.119203 1.59621 -0.135464
-0.249487 1.46786 -0.134088
-0.133524 1.47599 -0.0673943
-0.0511684 1.56036 -0.199393
-0.13306 1.47634 -0.0673186
-0.132632 1.47662 -0.0672222
-0.183264 1.59936 -0.240691
-0.135393 1.47407 -0.0682855
-0.203842 1.44307 -0.103729
-0.157994 1.45509 -0.0738668
-0.212427 1.44676 -0.101648
-0.192722 1.47134 -0.0888921
-0.191976 1.4707 -0.0895012
-0.193226 1.47223 -0.088231
-0.163374 1.43128 -0.078393
-0.166451 1.45505 -0.0754429
-0.051973 1.43515 -0.152962
-0.254223 1.53902 -0.129811
-0.125935 1.41225 -0.136703
-0.174358 1.46329 -0.0871887
-0.243325 1.51065 -0.245465
-0.275936 1.54593 -0.179127
-0.173198 1.45546 -0.077412
-0.175025 1.45554 -0.0779653
-0.137127 1.62009 -0.163449
-0.0563087 1.5694 -0.153623
-0.142436 1.45562 -0.0745663
-0.127033 1.36744 -0.185446
-0.163206 1.60613 -0.141405
-0.135306 1.36887 -0.207327
-0.164423 1.6217 -0.166493
-0.160039 1.45514 -0.0743469
-0.1018 1.4082 -0.229799
-0.13282 1.36963 -0.205561
-0.129168 1.37279 -0.185998
-0.143809 1.36503 -0.189938
-0.148857 1.36584 -0.190398
-0.190464 1.46935 -0.0904114
-0.19525 1.40086 -0.138554
-0.226874 1.56653 -0.25746
-0.205934 1.45846 -0.103294
-0.211201 1.44044 -0.106636
-0.0254286 1.46596 -0.204587
-0.217679 1.43299 -0.124777
-0.169725 1.4552 -0.0764859
-0.12434 1.47003 -0.284498
-0.166146 1.4326 -0.0790258
-0.135443 1.36563 -0.188
-0.110703 1.60805 -0.158553
-0.116192 1.37601 -0.195436
-0.263645 1.46154 -0.158371
-0.109386 1.40905 -0.181254
-0.117857 1.41071 -0.156355
-0.261078 1.46 -0.166119
-0.24102 1.50594 -0.244466
-0.248609 1.46998 -0.134534
-0.0927962 1.5202 -0.0839098
-0.263106 1.48104 -0.200324
-0.262687 1.49034 -0.211793
-0.24898 1.47165 -0.136814
-0.102148 1.41233 -0.197483
-0.212081 1.44827 -0.100777
-0.220458 1.42643 -0.187905
-0.250024 1.51465 -0.253256
-0.164472 1.60623 -0.195377
-0.256611 1.4513 -0.205829
-0.127837 1.3679 -0.185053
-0.127744 1.46806 -0.281808
-0.261652 1.46121 -0.205482
-0.254787 1.55711 -0.232224
-0.0446376 1.45712 -0.145601
-0.162801 1.43074 -0.0793515
-0.111462 1.40916 -0.176589
-0.251003 1.53489 -0.121037
-0.165869 1.62097 -0.167559
-0.203751 1.4584 -0.10092
-0.11923 1.61143 -0.159426
-0.188316 1.45534 -0.0987088
-0.22415 1.56924 -0.256583
-0.0969354 1.41455 -0.210709
-0.186768 1.45657 -0.09882
-0.060137 1.57398 -0.202092
-0.254326 1.47353 -0.150906
-0.173349 1.60924 -0.160887
-0.122639 1.48548 -0.0669508
-0.142021 1.41807 -0.108365
-0.261698 1.48877 -0.20652
-0.0827719 1.59567 -0.155548
-0.0806498 1.53588 -0.100988
-0.105834 1.41034 -0.189479
-0.115721 1.41008 -0.16132
-0.196209 1.40339 -0.136479
-0.142062 1.60662 -0.222881
-0.219437 1.42657 -0.210627
-0.066408 1.41192 -0.17656
-0.101117 1.60454 -0.1571
-0.122494 1.41162 -0.145654
-0.166006 1.3778 -0.195613
-0.126582 1.37335 -0.185793
-0.158718 1.38898 -0.132284
-0.172636 1.38117 -0.175192
-0.129713 1.37074 -0.203518
-0.124912 1.45705 -0.285221
-0.130229 1.37277 -0.185828
-0.12574 1.37147 -0.20129
-0.096654 1.4232 -0.112768
-0.206662 1.62652 -0.184641
-0.186344 1.38983 -0.151961
-0.208297 1.43404 -0.114259
-0.0349361 1.49824 -0.134329
-0.198535 1.38186 -0.19906
-0.0922538 1.41886 -0.229206
-0.0933297 1.41801 -0.224958
-0.263134 1.5518 -0.15317
-0.212675 1.42791 -0.240095
-0.271037 1.49315 -0.142994
-0.192218 1.44612 -0.280663
-0.133097 1.3962 -0.242709
-0.204059 1.44118 -0.262031
-0.195833 1.38034 -0.19792
-0.232008 1.60838 -0.19674
-0.129332 1.3971 -0.241443
-0.21785 1.57533 -0.254592
-0.225631 1.47244 -0.0968136
-0.182269 1.40343 -0.260122
-0.186068 1.57427 -0.0888662
-0.250885 1.44149 -0.205104
-0.130257 1.37273 -0.185003
-0.145969 1.45504 -0.073842
-0.242807 1.50584 -0.238947
-0.159383 1.37772 -0.212823
-0.0401959 1.5327 -0.199821
-0.257167 1.44653 -0.164987
-0.162715 1.37655 -0.204839
-0.171152 1.50526 -0.0803117
-0.161102 1.37648 -0.209021
-0.168174 1.3871 -0.13523
-0.191313 1.44757 -0.282855
-0.110538 1.60138 -0.210691
-0.190715 1.44833 -0.283941
-0.216304 1.57688 -0.254057
-0.154861 1.3805 -0.225853
-0.0389966 1.47167 -0.141284
-0.154285 1.39401 -0.249775
-0.208618 1.43971 -0.106959
-0.213187 1.55017 -0.281696
-0.19903 1.44688 -0.101552
-0.148938 1.39382 -0.247959
-0.107882 1.55251 -0.0766916
-0.175087 1.46337 -0.296139
-0.185139 1.45399 -0.290973
-0.0249512 1.46848 -0.204203
-0.182125 1.45646 -0.29333
-0.213074 1.58001 -0.252819
-0.201806 1.38437 -0.200244
-0.16985 1.37931 -0.217162
-0.17098 1.37835 -0.216847
-0.194532 1.44295 -0.275949
-0.119486 1.41111 -0.152802
-0.205713 1.45191 -0.259821
-0.0863214 1.59764 -0.156408
-0.221921 1.5064 -0.0888046
-0.262784 1.47236 -0.202763
-0.20164 1.42695 -0.264827
-0.0356166 1.52163 -0.199478
-0.14385 1.39425 -0.246224
-0.201905 1.50822 -0.277124
-0.122059 1.3731 -0.199059
-0.199353 1.50861 -0.277728
-0.0949834 1.60211 -0.158393
-0.0571242 1.42888 -0.220868
-0.238502 1.50638 -0.247781
-0.0601356 1.56145 -0.138111
-0.263062 1.4705 -0.203064
-0.239446 1.5101 -0.24857
-0.134462 1.47502 -0.0677714
-0.187275 1.45214 -0.288787
-0.0985478 1.3834 -0.174789
-0.175553 1.46204 -0.294683
-0.120522 1.48913 -0.310312
-0.186355 1.45299 -0.289804
-0.266125 1.55408 -0.162473
-0.207807 1.43198 -0.116109
-0.24521 1.47677 -0.262192
-0.180744 1.46024 -0.0870328
-0.200377 1.43725 -0.26615
-0.199423 1.43807 -0.267739
-0.0637428 1.5589 -0.129197
-0.218556 1.50206 -0.0876335
-0.161446 1.38836 -0.132895
-0.198446 1.43881 -0.268948
-0.201202 1.62744 -0.183369
-0.257879 1.48191 -0.174334
-0.204436 1.44475 -0.261606
-0.251244 1.51775 -0.249908
-0.202696 1.43531 -0.261343
-0.121965 1.47423 -0.284057
-0.21039 1.42911 -0.246135
-0.0716347 1.45025 -0.0955466
-0.208341 1.43074 -0.250728
-0.0314712 1.50935 -0.199978
-0.238045 1.50579 -0.24835
-0.239318 1.50562 -0.247042
-0.0768688 1.50257 -0.0844545
-0.239702 1.50567 -0.246508
-0.115967 1.4933 -0.0673624
-0.192929 1.39689 -0.143195
-0.19157 1.4099 -0.261791
-0.193491 1.41131 -0.262354
-0.207516 1.43132 -0.252467
-0.217054 1.43212 -0.136692
-0.131172 1.53859 -0.289594
-0.242303 1.50586 -0.240152
-0.266122 1.51329 -0.13053
-0.22846 1.46282 -0.113572
-0.113439 1.40943 -0.171339
-0.140053 1.60669 -0.221812
-0.230214 1.46361 -0.114288
-0.13646 1.56089 -0.279196
-0.155147 1.36702 -0.19111
-0.256687 1.54192 -0.134244
-0.0857737 1.55179 -0.270141
-0.2126 1.49406 -0.084311
-0.245637 1.60197 -0.15179
-0.236356 1.55634 -0.257551
-0.0831886 1.55404 -0.26753
-0.12254 1.46963 -0.285206
-0.14379 1.60648 -0.22388
-0.0500305 1.42713 -0.171333
-0.229179 1.51873 -0.0957749
-0.0955166 1.44181 -0.276111
-0.145172 1.60652 -0.22475
-0.205093 1.4512 -0.260407
-0.151825 1.39392 -0.248871
-0.193987 1.44371 -0.277095
-0.120293 1.48919 -0.310088
-0.0564721 1.57339 -0.168902
-0.23297 1.55597 -0.261174
-0.0919715 1.42039 -0.233071
-0.189722 1.39194 -0.148588
-0.173727 1.46431 -0.296439
-0.0766519 1.44144 -0.100887
-0.182887 1.38643 -0.139671
-0.0918859 1.42185 -0.236507
-0.0557867 1.56783 -0.204821
-0.072781 1.42156 -0.223556
-0.0235878 1.45262 -0.161008
-0.187998 1.45129 -0.28769
-0.130441 1.37272 -0.185661
-0.195598 1.44156 -0.273362
-0.122616 1.39855 -0.239226
-0.193347 1.44452 -0.278298
-0.187684 1.54174 -0.297953
-0.248417 1.53173 -0.116196
-0.166774 1.60502 -0.185346
-0.0595108 1.57266 -0.200012
-0.120936 1.41124 -0.149177
-0.219553 1.42667 -0.206993
-0.194962 1.44231 -0.274895
-0.0912832 1.42597 -0.249324
-0.0911644 1.42277 -0.240621
-0.12216 1.37331 -0.184788
-0.030824 1.4488 -0.209501
-0.110119 1.46527 -0.0863263
-0.258896 1.45089 -0.165655
-0.149233 1.60586 -0.226873
-0.163536 1.46963 -0.0887293
-0.165775 1.39547 -0.253615
-0.179371 1.38398 -0.161843
-0.177025 1.60962 -0.144345
-0.132161 1.41362 -0.124718
-0.19761 1.4069 -0.133421
-0.215844 1.43035 -0.148735
-0.0749871 1.49444 -0.0865997
-0.123522 1.48451 -0.0661985
-0.151976 1.60432 -0.140658
-0.124773 1.48303 -0.0659679
-0.24254 1.50594 -0.239501
-0.060176 1.57384 -0.216215
-0.0937927 1.41708 -0.222078
-0.144111 1.45531 -0.0739988
-0.12977 1.41986 -0.276423
-0.0441857 1.54176 -0.200903
-0.135349 1.39576 -0.24346
-0.105844 1.60617 -0.160612
-0.186087 1.40578 -0.260508
-0.240987 1.55586 -0.100041
-0.0280662 1.49435 -0.20126
-0.249132 1.59207 -0.205579
-0.0754048 1.54205 -0.109031
-0.140074 1.45601 -0.0747677
-0.219908 1.42668 -0.199118
-0.0412099 1.46532 -0.142885
-0.199899 1.38283 -0.199599
-0.248718 1.47117 -0.137586
-0.245967 1.55083 -0.104025
-0.0268031 1.46109 -0.205653
-0.167748 1.37861 -0.1913
-0.213717 1.42762 -0.236895
-0.0270918 1.49038 -0.201685
-0.17709 1.38432 -0.166671
-0.140662 1.41735 -0.110882
-0.0903484 1.58288 -0.131634
-0.0581841 1.57144 -0.184422
-0.197771 1.43944 -0.269851
-0.0589544 1.57177 -0.192395
-0.165561 1.58858 -0.0866184
-0.147893 1.45487 -0.0735849
-0.0347392 1.44422 -0.211555
-0.125547 1.44769 -0.284848
-0.11639 1.46372 -0.0850525
-0.187452 1.46686 -0.0903073
-0.0497846 1.55044 -0.200478
-0.193357 1.47274 -0.0878789
-0.264372 1.58417 -0.162941
-0.0482668 1.54859 -0.200617
-0.178659 1.40187 -0.25916
-0.0589323 1.56289 -0.1406
-0.219392 1.45985 -0.113039
-0.0523408 1.5435 -0.129085
-0.0327698 1.55612 -0.147615
-0.0416646 1.4801 -0.131947
-0.100328 1.5115 -0.0753203
-0.0502449 1.47805 -0.122474
-0.193242 1.37913 -0.196781
-0.0958166 1.51531 -0.078998
-0.0466076 1.47881 -0.125346
-0.130325 1.41338 -0.128539
-0.183661 1.59423 -0.107738
-0.102996 1.50823 -0.0723581
-0.0411889 1.52458 -0.129525
-0.103261 1.46643 -0.08873
-0.0370913 1.51041 -0.131525
-0.0386758 1.52954 -0.199554
-0.15319 1.36662 -0.190957
-0.128498 1.41291 -0.132086
-0.0769929 1.47114 -0.0994924
-0.189098 1.45012 -0.286203
-0.173724 1.3865 -0.136704
-0.184253 1.58769 -0.0910065
-0.193933 1.399 -0.141064
-0.170116 1.37921 -0.182069
-0.157577 1.50713 -0.283039
-0.0780048 1.5086 -0.0831533
-0.214638 1.57855 -0.253496
-0.200861 1.62506 -0.139593
-0.0913643 1.59381 -0.204461
-0.113958 1.49537 -0.0671702
-0.184373 1.55842 -0.0820507
-0.185141 1.56441 -0.0840791
-0.261947 1.46298 -0.205001
-0.0383537 1.48094 -0.135925
-0.106017 1.60615 -0.160794
-0.108323 1.50022 -0.068205
-0.116543 1.60365 -0.211582
-0.18089 1.54067 -0.0800914
-0.16526 1.50855 -0.282121
-0.202151 1.45808 -0.0994735
-0.0938118 1.51867 -0.0823049
-0.221027 1.57195 -0.255651
-0.197597 1.41367 -0.263409
-0.241579 1.52706 -0.114496
-0.168563 1.37977 -0.185577
-0.256404 1.48016 -0.167947
-0.0713251 1.47257 -0.103861
-0.204725 1.62532 -0.139874
-0.054533 1.47718 -0.118496
-0.0818299 1.53381 -0.0982904
-0.110433 1.40896 -0.178775
-0.0508455 1.55195 -0.200358
-0.262419 1.48955 -0.209058
-0.25233 1.53626 -0.124134
-0.0362601 1.50608 -0.132423
-0.0681081 1.47356 -0.106221
-0.0574188 1.56633 -0.147144
-0.0638073 1.57601 -0.200133
-0.0832277 1.53211 -0.0960939
-0.132651 1.5735 -0.0801059
-0.0942415 1.59533 -0.205412
-0.174369 1.46411 -0.296517
-0.143302 1.45544 -0.0742531
-0.104343 1.60465 -0.158731
-0.128993 1.60086 -0.136889
-0.225993 1.46201 -0.113327
-0.202328 1.41503 -0.125809
-0.139842 1.57709 -0.0812924
-0.173678 1.46388 -0.296254
-0.269714 1.50289 -0.137769
-0.167946 1.49355 -0.081933
-0.25118 1.54314 -0.109729
-0.176723 1.45562 -0.0784914
-0.269176 1.55811 -0.203872
-0.211665 1.4588 -0.108297
-0.204987 1.44617 -0.261555
-0.26668 1.55545 -0.216584
-0.209566 1.45864 -0.106986
-0.127576 1.37307 -0.185889
-0.109861 1.6092 -0.162712
-0.25813 1.48473 -0.187602
-0.102329 1.60467 -0.15989
-0.114962 1.49433 -0.0672583
-0.222545 1.47193 -0.0932452
-0.123347 1.56699 -0.0785328
-0.230422 1.51953 -0.0962363
-0.176911 1.58994 -0.0891693
-0.0906712 1.42918 -0.109926
-0.177976 1.58972 -0.0895497
-0.100608 1.60443 -0.156499
-0.0493798 1.44446 -0.150156
-0.185125 1.587 -0.0996635
-0.226243 1.4732 -0.0973635
-0.171423 1.584 -0.085673
-0.228688 1.5647 -0.252969
-0.17783 1.52879 -0.0797798
-0.174707 1.51749 -0.0792534
-0.240803 1.5106 -0.24767
-0.202496 1.5875 -0.247369
-0.206018 1.45195 -0.2596
-0.176088 1.40137 -0.25764
-0.200609 1.58864 -0.246343
-0.196463 1.44065 -0.271813
-0.134546 1.55331 -0.283889
-0.0730197 1.58935 -0.152604
-0.227157 1.51713 -0.0949
-0.223014 1.47205 -0.0947375
-0.269344 1.55587 -0.176146
-0.0646354 1.58614 -0.151377
-0.114381 1.60226 -0.211109
-0.0742515 1.47187 -0.101429
-0.109454 1.37847 -0.18132
-0.0855089 1.43321 -0.106812
-0.0587115 1.42862 -0.221304
-0.26289 1.48038 -0.200314
-0.133569 1.55047 -0.285188
-0.258758 1.45611 -0.205845
-0.144813 1.60373 -0.139468
-0.0809376 1.47019 -0.0975468
-0.131044 1.60159 -0.137157
-0.219826 1.50391 -0.0882298
-0.217742 1.42857 -0.155944
-0.117028 1.59546 -0.135147
-0.129995 1.61696 -0.16183
-0.188037 1.4073 -0.26086
-0.0989406 1.51324 -0.07686
-0.101776 1.51 -0.0739947
-0.169592 1.49954 -0.0806916
-0.107876 1.40503 -0.23268
-0.257849 1.45398 -0.20591
-0.184097 1.45486 -0.291742
-0.0908326 1.42408 -0.24518
-0.060309 1.57385 -0.210185
-0.150858 1.42244 -0.0937742
-0.276212 1.5319 -0.18376
-0.132049 1.61782 -0.162323
-0.0535726 1.56024 -0.206102
-0.15632 1.45497 -0.0738079
-0.275431 1.51922 -0.18791
-0.182548 1.38579 -0.156831
-0.131083 1.40941 -0.273607
-0.0348461 1.48152 -0.14044
-0.226702 1.56655 -0.256767
-0.0879054 1.46896 -0.0944895
-0.0910087 1.46843 -0.0931534
-0.258152 1.4828 -0.177379
-0.092071 1.60063 -0.157706
-0.0877212 1.52797 -0.0915176
-0.145763 1.62143 -0.164125
-0.0686869 1.54952 -0.119829
-0.109924 1.60853 -0.162691
-0.137063 1.5649 -0.277509
-0.267957 1.55469 -0.217218
-0.0844834 1.46952 -0.0957889
-0.0755951 1.49708 -0.0859091
-0.227631 1.56653 -0.254594
-0.200069 1.54728 -0.29185
-0.171789 1.45539 -0.0770616
-0.262503 1.45914 -0.15922
-0.204182 1.5861 -0.248208
-0.217583 1.43351 -0.122476
-0.220009 1.42666 -0.178925
-0.101474 1.60444 -0.159728
-0.265004 1.57362 -0.213268
-0.128028 1.46308 -0.0748778
-0.099914 1.59774 -0.207261
-0.18771 1.46698 -0.0906293
-0.256007 1.58494 -0.209496
-0.219945 1.42646 -0.170033
-0.191003 1.5948 -0.242967
-0.0401791 1.46883 -0.141958
-0.233672 1.60724 -0.197771
-0.203904 1.3863 -0.200865
-0.122773 1.48706 -0.304845
-0.158465 1.62224 -0.164968
-0.120705 1.4891 -0.310513
-0.0329757 1.48216 -0.144126
-0.179112 1.53343 -0.0802447
-0.0742236 1.56281 -0.257924
-0.16293 1.6066 -0.141802
-0.0649617 1.57611 -0.199498
-0.191784 1.44684 -0.281605
-0.264672 1.517 -0.127826
-0.0601482 1.57452 -0.219925
-0.0958496 1.41531 -0.214433
-0.1323 1.40618 -0.271083
-0.195963 1.50928 -0.278507
-0.206642 1.4515 -0.25898
-0.135375 1.39629 -0.266061
-0.0693841 1.4078 -0.177795
-0.16807 1.3958 -0.254451
-0.120922 1.48247 -0.302475
-0.0195406 1.52813 -0.150754
-0.178097 1.45902 -0.296387
-0.139904 1.39129 -0.126628
-0.0881544 1.59254 -0.203524
-0.217365 1.55062 -0.277558
-0.10257 1.60452 -0.157821
-0.10381 1.60533 -0.160218
-0.147079 1.59591 -0.242877
-0.0744882 1.54332 -0.110418
-0.106907 1.60495 -0.160484
-0.217398 1.43343 -0.119147
-0.028623 1.45388 -0.207577
-0.189658 1.4087 -0.261186
-0.241313 1.50575 -0.243345
-0.218197 1.43237 -0.130577
-0.218793 1.42757 -0.159507
-0.172877 1.46395 -0.0871351
-0.255571 1.47902 -0.165338
-0.165169 1.43273 -0.0747568
-0.125857 1.46733 -0.282749
-0.167199 1.46721 -0.0879991
-0.058015 1.56437 -0.143637
-0.0410301 1.43786 -0.214554
-0.184388 1.59032 -0.103744
-0.15381 1.58369 -0.0840888
-0.135927 1.61943 -0.163263
-0.0884286 1.59873 -0.156954
-0.0712458 1.56552 -0.254498
-0.120439 1.48461 -0.304109
-0.0979798 1.41377 -0.206953
-0.0351646 1.44125 -0.16538
-0.133084 1.45709 -0.0750871
-0.125689 1.37314 -0.185613
-0.120622 1.48368 -0.303524
-0.200963 1.44527 -0.102383
-0.254937 1.4418 -0.164041
-0.206071 1.38832 -0.201454
-0.179593 1.40217 -0.259613
-0.0669337 1.56896 -0.247498
-0.226182 1.47317 -0.0973436
-0.193704 1.50969 -0.278911
-0.123728 1.48934 -0.303292
-0.0569019 1.56967 -0.204251
-0.0895641 1.52621 -0.0895593
-0.135513 1.5572 -0.281563
-0.21672 1.42932 -0.151909
-0.112496 1.60178 -0.210654
-0.0741973 1.58246 -0.200132
-0.12942 1.60681 -0.216677
-0.223415 1.47181 -0.0959965
-0.145874 1.5933 -0.247331
-0.261731 1.49159 -0.217996
-0.211433 1.42844 -0.243136
-0.168934 1.60516 -0.176408
-0.0693226 1.5796 -0.199344
-0.247236 1.52154 -0.25752
-0.237179 1.60434 -0.199297
-0.228418 1.55494 -0.267374
-0.262108 1.49088 -0.215311
-0.224253 1.55322 -0.272562
-0.0281139 1.45584 -0.207012
-0.10062 1.46682 -0.0899735
-0.261058 1.47739 -0.200347
-0.214594 1.43531 -0.112614
-0.240552 1.50586 -0.245448
-0.114273 1.40951 -0.163985
-0.0948333 1.43951 -0.274035
-0.0492077 1.43074 -0.217794
-0.246637 1.5953 -0.204265
-0.0966696 1.54324 -0.283679
-0.0423788 1.52825 -0.129218
-0.0439781 1.47948 -0.128242
-0.217383 1.45942 -0.112082
-0.139659 1.60353 -0.138628
-0.0988389 1.54112 -0.285596
-0.217096 1.42716 -0.226213
-0.0993569 1.41327 -0.203657
-0.216395 1.42722 -0.22967
-0.0709924 1.58955 -0.151633
-0.215112 1.42733 -0.233623
-0.116382 1.401 -0.23666
-0.124252 1.49239 -0.301648
-0.257275 1.5433 -0.136225
-0.165118 1.43293 -0.0743139
-0.106887 1.50194 -0.0689735
-0.0761997 1.57187 -0.129905
-0.249432 1.51842 -0.25109
-0.251335 1.47287 -0.141487
-0.185658 1.50801 -0.279567
-0.217835 1.43269 -0.127023
-0.225696 1.5676 -0.257109
-0.250941 1.52012 -0.249416
-0.224859 1.51255 -0.0922218
-0.249828 1.51293 -0.253954
-0.274548 1.51217 -0.19082
-0.138301 1.60667 -0.220708
-0.0301844 1.55248 -0.147432
-0.214255 1.44268 -0.0968148
-0.0560112 1.57012 -0.156444
-0.153284 1.60478 -0.140909
-0.243773 1.59852 -0.202781
-0.0374239 1.43849 -0.166546
-0.222635 1.5526 -0.273882
-0.26273 1.58691 -0.161769
-0.138505 1.41603 -0.11389
-0.141372 1.60368 -0.138895
-0.168214 1.43363 -0.077441
-0.192115 1.54352 -0.296118
-0.219924 1.42645 -0.165575
-0.135926 1.60261 -0.138038
-0.210035 1.49094 -0.0833135
-0.11838 1.37454 -0.183906
-0.238114 1.50601 -0.248288
-0.143627 1.3901 -0.12814
-0.113982 1.55857 -0.077361
-0.137882 1.60321 -0.138386
-0.24162 1.5467 -0.255515
-0.249367 1.51811 -0.2512
-0.250833 1.51668 -0.249936
-0.0923285 1.52239 -0.0865947
-0.254498 1.47662 -0.159538
-0.121122 1.48811 -0.0672178
-0.207421 1.48802 -0.0819117
-0.145017 1.46382 -0.0738567
-0.109321 1.59183 -0.134331
-0.269365 1.55776 -0.200828
-0.16023 1.39492 -0.251716
-0.171856 1.60798 -0.166136
-0.156867 1.38895 -0.131896
-0.127261 1.43785 -0.281437
-0.127948 1.36785 -0.18524
-0.082603 1.43596 -0.10488
-0.250173 1.51467 -0.250438
-0.189897 1.4688 -0.0904757
-0.229196 1.56435 -0.252914
-0.141064 1.45586 -0.0747001
-0.260071 1.45746 -0.16586
-0.0357996 1.4835 -0.138233
-0.243041 1.53991 -0.257206
-0.241891 1.54565 -0.255612
-0.175883 1.60944 -0.149619
-0.17043 1.59001 -0.0874598
-0.175732 1.59018 -0.0887655
-0.174393 1.59043 -0.0882949
-0.246919 1.53059 -0.115974
-0.250646 1.55676 -0.238455
-0.134562 1.41423 -0.120494
-0.135906 1.45662 -0.0745962
-0.150588 1.6217 -0.164471
-0.0881451 1.54989 -0.273036
-0.203801 1.43906 -0.262472
-0.0470299 1.53569 -0.129201
-0.190516 1.45349 -0.0990522
-0.187251 1.46673 -0.0902173
-0.100769 1.41288 -0.200654
-0.270149 1.55644 -0.182271
-0.111751 1.60167 -0.210754
-0.231685 1.52041 -0.0973488
-0.0750387 1.44278 -0.0993872
-0.176723 1.3862 -0.137666
-0.120062 1.48939 -0.0668973
-0.234887 1.46491 -0.117511
-0.103417 1.60451 -0.158299
-0.132539 1.54472 -0.28699
-0.0919668 1.42799 -0.110746
-0.105562 1.59042 -0.13386
-0.271681 1.50272 -0.194419
-0.130472 1.37263 -0.185353
-0.249056 1.55669 -0.240803
-0.263571 1.55866 -0.219413
-0.185704 1.56991 -0.0865756
-0.0601326 1.57335 -0.212663
-0.103608 1.54861 -0.0769956
-0.249653 1.53309 -0.117755
-0.121856 1.48728 -0.0675236
-0.0681149 1.57777 -0.199327
-0.176394 1.46152 -0.294972
-0.108359 1.40949 -0.184161
-0.267722 1.55473 -0.166644
-0.163346 1.60715 -0.14215
-0.13407 1.45687 -0.0747102
-0.113566 1.40929 -0.169233
-0.227625 1.56488 -0.257481
-0.185217 1.45789 -0.0990352
-0.0880974 1.43205 -0.108333
-0.12781 1.43434 -0.280326
-0.0909001 1.52451 -0.0880011
-0.056048 1.57106 -0.159496
-0.267083 1.55448 -0.164693
-0.219988 1.57273 -0.255221
-0.239387 1.46588 -0.120222
-0.208883 1.43604 -0.11246
-0.178156 1.46149 -0.0871162
-0.0606716 1.57462 -0.223686
-0.151095 1.45482 -0.0739933
-0.1454 1.58031 -0.0821662
-0.130104 1.46046 -0.0806815
-0.266079 1.55845 -0.212639
-0.241474 1.50574 -0.243049
-0.146919 1.45491 -0.0737213
-0.255345 1.54039 -0.131837
-0.262446 1.55096 -0.15025
-0.039463 1.52012 -0.12996
-0.118086 1.49128 -0.0669988
-0.157832 1.60354 -0.215102
-0.169549 1.37958 -0.21756
-0.232842 1.56073 -0.258103
-0.107152 1.60019 -0.209551
-0.160011 1.60707 -0.141817
-0.0274485 1.45913 -0.206203
-0.136827 1.41505 -0.116697
-0.0631345 1.57245 -0.237027
-0.142506 1.36868 -0.210942
-0.111587 1.55606 -0.0769908
-0.158679 1.60662 -0.141598
-0.258087 1.48372 -0.18278
-0.0467825 1.54644 -0.200856
-0.0254034 1.48482 -0.154963
-0.148514 1.58153 -0.0829767
-0.163909 1.43165 -0.077435
-0.157128 1.60598 -0.141419
-0.1258 1.6152 -0.160723
-0.191574 1.39407 -0.145786
-0.250329 1.4728 -0.140101
-0.0832143 1.43545 -0.10526
-0.250821 1.52028 -0.24943
-0.266569 1.51218 -0.131343
-0.163892 1.58746 -0.0863488
-0.156307 1.60301 -0.219099
-0.264845 1.55738 -0.215646
-0.232069 1.56061 -0.257886
-0.227002 1.56595 -0.257441
-0.180003 1.45785 -0.294974
-0.0748087 1.41977 -0.223902
-0.170992 1.3869 -0.136017
-0.0621792 1.55928 -0.13348
-0.164623 1.38775 -0.133981
-0.193772 1.47513 -0.0866519
-0.103176 1.53682 -0.290011
-0.171727 1.3806 -0.17782
-0.0948157 1.41622 -0.218316
-0.0764449 1.41881 -0.22415
-0.181597 1.60011 -0.2402
-0.265024 1.55355 -0.15951
-0.029726 1.45056 -0.208829
-0.217865 1.43206 -0.133918
-0.064255 1.42552 -0.222957
-0.254517 1.58699 -0.208708
-0.194029 1.47545 -0.086384
-0.18795 1.46732 -0.0906592
-0.0584951 1.57177 -0.188394
-0.235973 1.61028 -0.147906
-0.189313 1.46835 -0.0905625
-0.139367 1.39165 -0.126485
-0.117081 1.49213 -0.0672796
-0.169734 1.62277 -0.170172
-0.184229 1.58781 -0.0909622
-0.2299 1.5192 -0.0959596
-0.197059 1.44013 -0.270948
-0.096737 1.38427 -0.173608
-0.0942421 1.54542 -0.281327
-0.125501 1.46126 -0.0831771
-0.180304 1.38644 -0.1388
-0.258326 1.54475 -0.13814
-0.263315 1.48167 -0.200324
-0.175693 1.46273 -0.0872731
-0.234799 1.52263 -0.102793
-0.0499037 1.53996 -0.129105
-0.220059 1.42673 -0.192156
-0.164353 1.43186 -0.0764882
-0.167948 1.46663 -0.0876814
-0.198626 1.58967 -0.245508
-0.117261 1.37534 -0.183563
-0.0940468 1.58501 -0.132268
-0.187101 1.4666 -0.0900754
-0.187877 1.4672 -0.0907051
-0.185368 1.59791 -0.241292
-0.255195 1.44899 -0.205751
-0.192543 1.45195 -0.0993405
-0.123955 1.4121 -0.142332
-0.105503 1.6049 -0.159355
-0.168095 1.45509 -0.0759109
-0.102763 1.41838 -0.11481
-0.13064 1.46043 -0.0805521
-0.0501525 1.42954 -0.218252
-0.147814 1.42108 -0.0988222
-0.128042 1.36765 -0.185639
-0.232339 1.52094 -0.097931
-0.199156 1.40945 -0.130506
-0.240403 1.46319 -0.264504
-0.0528177 1.55902 -0.206011
-0.11943 1.46287 -0.0844284
-0.170317 1.60268 -0.236267
-0.13959 1.51255 -0.311278
-0.0277269 1.54838 -0.147457
-0.221661 1.46054 -0.112853
-0.198242 1.41479 -0.264041
-0.264199 1.55849 -0.215405
-0.0760609 1.56099 -0.259864
-0.23072 1.61007 -0.195725
-0.166627 1.50827 -0.282114
-0.183748 1.4044 -0.260055
-0.253797 1.44625 -0.205555
-0.210237 1.43932 -0.108939
-0.0289203 1.49761 -0.200969
-0.0560108 1.42232 -0.173287
-0.168095 1.38072 -0.187874
-0.211828 1.44243 -0.104826
-0.201447 1.43629 -0.263949
-0.157861 1.52713 -0.307979
-0.211461 1.55006 -0.283093
-0.136323 1.60665 -0.219613
-0.0601776 1.57323 -0.204259
-0.147285 1.36543 -0.190361
-0.276168 1.52799 -0.185022
-0.261603 1.57936 -0.211978
-0.206116 1.42381 -0.119982
-0.219025 1.42673 -0.214729
-0.183317 1.55273 -0.0813871
-0.0327445 1.51303 -0.199932
-0.26152 1.47815 -0.200523
-0.261522 1.45484 -0.160693
-0.243461 1.47134 -0.263653
-0.206239 1.44169 -0.105633
-0.055876 1.4292 -0.221117
-0.234938 1.55612 -0.258948
-0.0732055 1.40453 -0.16462
-0.268355 1.55832 -0.206819
-0.219983 1.42654 -0.174336
-0.157689 1.42684 -0.0850145
-0.190988 1.46992 -0.0902078
-0.218629 1.42674 -0.218416
-0.183105 1.45567 -0.292552
-0.122331 1.48057 -0.296994
-0.238479 1.52461 -0.110828
-0.252188 1.44347 -0.205266
-0.250442 1.47258 -0.140549
-0.14989 1.60388 -0.140351
-0.156424 1.37924 -0.221676
-0.151125 1.58261 -0.0836333
-0.249743 1.51219 -0.254077
-0.100415 1.60412 -0.159559
-0.207942 1.45842 -0.105733
-0.260184 1.4588 -0.165892
-0.106409 1.60488 -0.160027
-0.17757 1.46182 -0.0871872
-0.254585 1.47424 -0.153663
-0.275965 1.53627 -0.182304
-0.0653322 1.57021 -0.243661
-0.155126 1.60315 -0.222126
-0.270435 1.572 -0.168502
-0.19774 1.62806 -0.182516
-0.270071 1.55671 -0.185977
-0.268475 1.5551 -0.170015
-0.104868 1.40681 -0.231154
-0.26584 1.55632 -0.216108
-0.0677665 1.40894 -0.162127
-0.187712 1.39113 -0.150748
-0.261837 1.48826 -0.203082
-0.162646 1.39542 -0.252439
-0.217976 1.42692 -0.222056
-0.247521 1.51763 -0.256095
-0.117287 1.6105 -0.159232
-0.114667 1.3762 -0.182878
-0.202047 1.548 -0.290752
-0.14116 1.39475 -0.245392
-0.170544 1.60632 -0.17053
-0.180318 1.38477 -0.160152
-0.125913 1.39772 -0.240373
-0.275939 1.54094 -0.180808
-0.0538611 1.56253 -0.20589
-0.159321 1.46217 -0.0951467
-0.132899 1.54715 -0.28643
-0.20922 1.62559 -0.185557
-0.113392 1.59373 -0.134714
-0.100532 1.41992 -0.114058
-0.0567088 1.56827 -0.151033
-0.0737765 1.42088 -0.223717
-0.214111 1.45869 -0.110597
-0.231034 1.5199 -0.096725
-0.232637 1.46435 -0.116223
-0.163137 1.60641 -0.140936
-0.13461 1.60239 -0.137776
-0.269966 1.55674 -0.188844
-0.0660744 1.42487 -0.223121
-0.209442 1.42992 -0.248539
-0.0692199 1.5652 -0.129386
-0.105042 1.60482 -0.159081
-0.199452 1.41662 -0.264586
-0.25473 1.47536 -0.155895
-0.258889 1.55791 -0.226407
-0.138042 1.39513 -0.244408
-0.261693 1.45611 -0.160298
-0.205617 1.42176 -0.121115
-0.274982 1.51576 -0.189329
-0.169733 1.58969 -0.0873654
-0.118387 1.60467 -0.212221
-0.127816 1.46069 -0.0818996
-0.073186 1.56865 -0.129734
-0.172942 1.59055 -0.0879158
-0.105944 1.60487 -0.159705
-0.214255 1.44253 -0.0969948
-0.130118 1.57139 -0.0797546
-0.0581487 1.57215 -0.202639
-0.0804073 1.58521 -0.201852
-0.190011 1.44911 -0.284989
-0.203403 1.41691 -0.124088
-0.163659 1.47847 -0.0857011
-0.267225 1.55844 -0.209846
-0.17786 1.62385 -0.174737
-0.0603534 1.57357 -0.207207
-0.199933 1.41534 -0.263813
-0.101649 1.60452 -0.157366
-0.0480273 1.43192 -0.217416
-0.190614 1.54287 -0.296868
-0.181189 1.4571 -0.294095
-0.215821 1.43469 -0.114512
-0.261068 1.45235 -0.161641
-0.170721 1.58368 -0.0856528
-0.164397 1.37823 -0.199272
-0.120227 1.37379 -0.184334
-0.184728 1.38754 -0.153741
-0.107617 1.48219 -0.301123
-0.20437 1.444 -0.261643
-0.235028 1.55974 -0.258239
-0.13677 1.36539 -0.188369
-0.269607 1.5575 -0.198351
-0.0611992 1.41797 -0.174863
-0.17552 1.3832 -0.169765
-0.0842621 1.53045 -0.0935831
-0.216068 1.43102 -0.142235
-0.194714 1.45013 -0.0994591
-0.137585 1.56979 -0.275192
-0.255848 1.44474 -0.164529
-0.0547056 1.56421 -0.205456
-0.258778 1.48576 -0.191074
-0.188619 1.50866 -0.278743
-0.0523477 1.55553 -0.200107
-0.153889 1.45475 -0.0743594
-0.219917 1.42676 -0.195768
-0.247779 1.60011 -0.152826
-0.184113 1.50798 -0.279662
-0.192375 1.50967 -0.278948
-0.165656 1.6054 -0.190181
-0.249851 1.51402 -0.253485
-0.178567 1.38374 -0.163703
-0.250564 1.51433 -0.252188
-0.124769 1.59924 -0.136159
-0.179378 1.46086 -0.0870202
-0.177479 1.40162 -0.258501
-0.261141 1.48749 -0.198729
-0.271053 1.49123 -0.143826
-0.2143 1.44257 -0.0969603
-0.250308 1.51543 -0.250122
-0.20796 1.54964 -0.286303
-0.164799 1.48317 -0.0850929
-0.066213 1.57631 -0.199004
-0.250302 1.51455 -0.251527
-0.258096 1.58295 -0.2105
-0.0624084 1.57316 -0.233609
-0.035552 1.48688 -0.137255
-0.153605 1.60286 -0.226335
-0.0967129 1.59657 -0.206221
-0.112458 1.49639 -0.0672756
-0.0368718 1.52539 -0.199534
-0.270438 1.48792 -0.145417
-0.191323 1.50934 -0.278557
-0.128435 1.37286 -0.185988
-0.1678 1.60492 -0.180852
-0.145004 1.45519 -0.0738614
-0.144944 1.46487 -0.0750629
-0.175455 1.46181 -0.294515
-0.251552 1.53557 -0.122653
-0.0556107 1.42675 -0.15592
-0.200609 1.45791 -0.0979253
-0.115643 1.60981 -0.159131
-0.25692 1.59359 -0.157963
-0.110346 1.49825 -0.0676716
-0.215366 1.43116 -0.145517
-0.268855 1.50647 -0.135552
-0.216521 1.43147 -0.138449
-0.207612 1.42892 -0.116883
-0.113155 1.40228 -0.235297
-0.106732 1.46597 -0.0870458
-0.257337 1.48124 -0.172025
-0.121236 1.59724 -0.135691
-0.237909 1.52419 -0.110089
-0.0948482 1.51708 -0.080775
-0.0714234 1.45171 -0.0951003
-0.269873 1.55733 -0.195075
-0.209683 1.43764 -0.110556
-0.275931 1.52309 -0.186636
-0.25243 1.47294 -0.144003
-0.0683163 1.42392 -0.223352
-0.163098 1.60737 -0.142224
-0.264148 1.55994 -0.215192
-0.128609 1.6164 -0.161473
-0.0343852 1.51742 -0.199674
-0.13862 1.45618 -0.0750351
-0.105709 1.50397 -0.0701562
-0.172766 1.51138 -0.0802816
-0.163268 1.60705 -0.142054
-0.0453204 1.54405 -0.201035
-0.242716 1.50595 -0.238904
-0.0612965 1.56063 -0.135876
-0.259959 1.4867 -0.194949
-0.188756 1.37732 -0.19487
-0.166047 1.48713 -0.0836957
-0.25446 1.4778 -0.163302
-0.22116 1.50806 -0.267041
-0.0765359 1.50014 -0.0851136
-0.175187 1.46171 -0.294539
-0.227842 1.56452 -0.257474
-0.268137 1.57814 -0.165845
-0.0509068 1.55737 -0.205432
-0.0304732 1.50451 -0.200248
-0.0516505 1.55909 -0.19965
-0.124885 1.41212 -0.139432
-0.269303 1.57491 -0.167205
-0.182188 1.50802 -0.279716
-0.262093 1.49627 -0.231959
-0.0593326 1.57198 -0.196162
-0.190951 1.37837 -0.195756
-0.219692 1.4268 -0.203704
-0.0987179 1.60354 -0.159265
-0.120824 1.61227 -0.159639
-0.0556511 1.54761 -0.129142
-0.251793 1.58958 -0.20685
-0.133033 1.40228 -0.270074
-0.182163 1.54685 -0.0807163
-0.26295 1.46954 -0.20345
-0.247075 1.55677 -0.243866
-0.128704 1.57036 -0.0793183
-0.0809379 1.55624 -0.264899
-0.20474 1.43367 -0.258194
-0.146793 1.36904 -0.213241
-0.262858 1.47431 -0.202429
-0.268736 1.55544 -0.173017
-0.2483 1.47061 -0.135857
-0.216228 1.45892 -0.112064
-0.0296597 1.50079 -0.200693
-0.0560605 1.42903 -0.220609
-0.0973622 1.58678 -0.132762
-0.214246 1.4426 -0.096896
-0.147642 1.60398 -0.139985
-0.244516 1.47429 -0.262976
-0.0320364 1.44698 -0.210138
-0.105766 1.60622 -0.160667
-0.205394 1.45187 -0.26002
-0.0440506 1.43612 -0.216096
-0.242069 1.55673 -0.2509
-0.225387 1.47229 -0.0967284
-0.137052 1.45646 -0.0747743
-0.256825 1.55753 -0.22938
-0.206236 1.4518 -0.259319
-0.126556 1.441 -0.28281
-0.220292 1.42656 -0.183208
