ply
format ascii 1.0
element vertex 1587
property float x
property float y
property float z
end_header
-0.0320861 0.103045 0.123452
-0.0328934 0.102791 0.122262
-0.0917783 0.207943 -0.042244
-0.107575 -0.00522098 0.148227
-0.092145 0.20666 -0.0442537
-0.0859912 0.210138 -0.0394936
0.0149445 0.095942 0.137366
-0.0515617 0.145163 -0.129075
-0.0679123 0.070094 0.091429
-0.0511881 0.0716055 0.0894547
-0.00853385 -0.108591 -0.121821
0.00654641 0.0960358 0.0994814
-0.027386 0.0917675 0.143273
0.040308 0.0966233 0.082062
-0.0711999 0.0984848 -0.191592
-0.0332412 0.0847989 0.143199
-0.0305535 0.103058 0.125593
0.084941 -0.123787 -0.0363242
-0.0844743 0.0221065 0.147336
-0.0345106 0.080761 0.142963
0.0967328 -0.0918796 -0.125707
-0.0340844 0.0831545 0.143231
-0.0290429 0.0886671 0.142479
-0.061976 0.0664636 0.0808395
0.139753 -0.0735555 0.0167333
-0.0609328 0.107307 0.0287817
-0.0248947 0.173671 -0.128081
0.0133538 0.102465 0.132188
-0.0658536 0.100344 0.0176984
0.0575242 0.214162 -0.0511652
-0.018504 0.204664 0.0178624
-0.0859096 0.141169 -0.118406
-0.0737158 0.11338 -0.182655
0.046404 0.130886 -0.177879
-0.025287 0.203232 0.0173513
-0.04583 0.0666177 0.0508212
-0.0600025 0.0611626 0.0117405
-0.0745426 0.0628243 -0.00649054
-0.0450739 0.199761 0.0168657
-0.0827033 0.0844101 -0.00290728
-0.0367751 0.216577 -0.0391258
0.068766 0.104619 0.013368
-0.0983598 0.0470605 0.0147471
-0.075756 0.0954444 0.00529022
-0.0771671 0.0934719 0.00360591
0.0387371 0.0979593 0.0853988
-0.0501226 0.0660366 0.0504278
-0.0641817 0.102529 0.0213675
-0.094221 0.200755 -0.0536469
-0.0586324 0.116472 -0.155694
0.123173 -0.0891701 0.0555518
-0.0792828 0.0652667 6.17504e-05
0.0354317 0.0773754 0.0796247
-0.0774046 0.0646779 -0.000762247
-0.0183589 0.167602 0.0415727
0.0661259 0.186189 0.00681483
-0.00381282 0.168933 0.0404333
-0.0285995 0.0894159 0.142603
-0.0177457 0.148556 -0.135103
0.0027223 0.125667 0.0499095
-0.140104 -0.0452362 -0.12388
-0.0697245 0.0719267 0.0901445
0.0630239 0.150606 -0.124064
-0.06865 0.0709599 0.0906594
0.0486484 0.187414 -0.108209
-0.070385 0.0725726 0.0901101
-0.0452189 0.0646682 0.0165455
-0.079593 0.212689 -0.00189734
-0.0628362 0.182252 0.0192812
-0.0945714 0.186582 -0.0623548
-0.063004 0.0626908 0.0490364
-0.0268556 0.103079 0.136529
-0.060812 0.0634118 0.0494125
0.0825507 0.00611626 0.152557
0.0558275 0.0543508 -0.0713314
0.0522323 0.0832081 0.0759682
-0.0345034 0.0816903 0.143118
-0.052572 0.0657905 0.0501297
-0.0462664 0.163799 0.0340271
-0.111519 0.0314055 -0.0308803
0.074919 -0.0551868 -0.161529
0.0254305 -0.0614567 0.16112
-0.0384752 0.0959971 -0.191379
0.0243656 0.122938 0.0475573
-0.0659156 0.0865169 -0.172815
-0.0466199 0.161602 0.0346002
-0.0473387 0.059521 0.144213
-0.117736 0.150422 -0.0591515
-0.116721 0.0105648 -0.0516821
-0.0879446 0.209913 -0.0400002
-0.0947279 0.0565412 -0.011521
-0.0763473 0.0574211 -0.0342587
-0.0240115 0.0665539 0.020397
-0.0652397 0.0855893 -0.169773
0.0150766 0.105128 0.125715
-0.0608861 0.0740001 -0.140375
-0.0661128 0.212299 -0.0366181
-0.114937 -0.0190495 0.147135
0.0154159 0.197484 -0.103952
-0.0761699 0.0566852 -0.0364958
0.0631906 0.211393 -0.015882
-0.0989805 0.0444353 0.0263327
0.122919 -0.102004 -0.0336642
-0.0667852 0.0611711 0.0479419
-0.0974371 0.050074 0.00517195
-0.095725 0.0545915 -0.00795544
-0.0558609 0.113461 -0.157075
0.0422747 0.125738 -0.174076
-0.0834566 0.0626348 0.0743366
-0.0532474 0.213526 -0.0367369
-0.0691999 0.197309 0.011028
-0.0965649 0.185239 -0.0704719
-0.100198 0.0580866 -0.00892319
-0.0528142 0.062956 0.0138002
-0.0570728 0.0619007 0.0124818
-0.0748169 0.0633123 -0.00399116
-0.100549 0.0568179 -0.00910973
0.0349646 0.100135 0.0916077
-0.0990979 0.0589332 -0.00893717
-0.0509091 0.0684726 0.0787978
-0.049855 0.145721 -0.129442
0.0300582 -0.0615867 0.159365
-0.0860888 0.0575909 0.0426764
-0.0872713 0.0574102 0.0421682
-0.113121 0.0956501 -0.0807282
-0.112957 0.0890706 -0.0843218
-0.0813994 0.085671 -0.00167496
0.127813 -0.0950935 -0.0552308
-0.0896139 0.0575073 0.0382538
0.00487894 -0.0205006 -0.152546
-0.0883746 0.0574221 0.0408453
-0.0940963 0.0447373 0.0405718
-0.120951 -0.0740267 0.0818335
-0.060267 0.108995 0.0309118
0.0249393 0.117142 -0.204542
-0.0570635 0.125505 0.0403332
0.0633098 0.0718242 -0.0139928
-0.0347613 0.0940028 0.106713
-0.0744941 0.0601169 -0.0249917
-0.0754194 0.0596732 -0.0275153
-0.0297104 0.0874917 0.142225
-0.0822597 0.0569514 0.0441596
-0.0941299 0.186844 -0.0599667
-0.109914 0.0165316 -0.0962827
-0.0740938 0.0612098 -0.019123
-0.096219 0.17415 -0.0959736
-0.0551685 0.104901 0.12308
0.0283937 0.194586 -0.106698
0.0652017 -0.124648 -0.0294995
-0.0738212 0.0622306 -0.0146786
-0.0100639 0.0649543 0.0515093
-0.0935677 0.202178 -0.0513562
0.0980673 -0.125826 -0.0407523
0.0195459 0.139281 -0.140853
-0.11067 -0.00951658 0.148273
-0.0594561 0.0358298 0.153106
-0.0276891 0.0908778 0.142892
0.0204326 0.0885812 0.141131
0.021447 0.195776 -0.105212
-0.0809617 0.0259751 0.147312
-0.0852439 0.060296 0.0704793
-0.0584712 0.113414 0.0360437
-0.0566943 0.12883 0.0420953
-0.0581098 0.114887 0.0372339
-0.0524477 0.138678 0.039638
-0.0892996 0.0577589 0.0385725
-0.0424343 0.164008 0.040747
-0.160294 -0.0709332 -0.0543742
-0.0989892 0.044728 0.0250759
-0.097467 0.0439572 0.0316528
0.0510536 0.185113 -0.108183
0.0418207 -0.113261 0.0638075
-0.0989354 0.0454892 0.0205081
0.0627469 0.0716706 -0.0155218
-0.0990377 0.0448974 0.0232986
-0.0906924 0.0499055 0.0526994
0.0709321 -0.0422401 -0.163887
-0.0731301 0.106702 -0.195737
-0.0535439 0.136775 0.0398252
-0.0860748 0.0590149 0.0680389
-0.0308757 0.0662629 0.0516955
-0.0856436 0.0596975 0.0693247
0.0085076 -0.122318 -0.0124249
-0.112506 -0.0137952 0.147707
-0.111901 -0.0121613 0.147935
-0.0548854 0.035914 0.159349
0.0197645 -0.0609906 0.162705
-0.0874799 0.0568992 0.0647254
0.0537725 0.120078 -0.140173
0.0649536 0.120132 0.0297789
-0.0978445 0.0479234 0.0110813
-0.0457761 0.072496 0.0889212
-0.120005 -0.0162886 0.0794506
-0.0518196 0.198299 0.0182667
-0.117954 -0.0269347 0.14634
-0.118109 -0.0281359 0.145999
-0.117229 -0.0248266 0.146625
-0.0492745 -0.0497933 0.173833
-0.0424484 -0.0518292 0.174532
0.0399061 -0.0244732 -0.165415
-0.0738516 0.033594 0.14691
0.0137658 0.0737119 0.0818489
-0.14415 -0.05441 0.0668047
-0.0736337 0.0414909 -0.070174
-0.113435 -0.0133786 0.147063
-0.109118 -0.00753933 0.148171
-0.0291961 0.10293 0.128102
-0.10548 -0.0236714 0.156312
-0.150272 -0.0670037 -0.0125707
-0.110745 -0.013626 0.148969
0.0484836 -0.112548 0.0627117
-0.126341 -0.0357296 0.138092
-0.0929157 -0.102183 0.0122073
-0.121941 -0.0875679 -0.0727369
-0.118019 -0.0289503 0.145802
-0.0131629 0.0770567 0.0835885
0.0676724 -0.0964074 -0.136828
-0.127325 -0.0361908 0.136118
-0.0640448 0.0837195 -0.165019
0.0364572 0.0971399 -0.199997
-0.0496616 0.0703536 0.102454
0.126811 -0.0837214 0.0544667
-0.0828142 0.215564 -0.00923856
-0.150906 -0.0581638 0.0347073
-0.0993405 0.0056529 0.14815
0.0496197 0.186375 -0.108286
-0.0263288 0.0987375 0.145709
0.118378 -0.0488326 0.108232
-0.0280064 0.10283 0.131623
-0.151301 -0.0587151 0.0313183
-0.12068 -0.0498002 0.115917
-0.0962399 0.170283 -0.101339
-0.123189 -0.0360973 -0.090185
-0.0672993 0.0671957 0.0801172
-0.102701 0.00169945 0.148355
-0.119936 -0.0423716 0.113127
0.0531468 0.209543 -0.0632549
0.0513017 0.198041 -0.0980847
-0.0839668 0.0619256 0.073243
0.121314 -0.0648977 0.0846063
0.0666675 0.152818 0.0256704
-0.1425 -0.0762221 -0.0888943
-0.0780978 0.0530087 0.0844618
0.067035 0.0735875 0.0980285
-0.0891425 0.0517954 0.0566392
0.0214929 0.0663451 0.024051
-0.125543 -0.00519545 0.0412406
0.0269784 0.205431 0.012709
-0.0820522 0.0851216 -0.00234608
-0.0959835 0.00967374 0.14808
-0.115998 -0.00719539 0.0783454
-0.111416 0.0187444 -0.0745895
-0.111227 0.00147408 0.0779896
-0.101198 0.0291162 -0.0850958
0.000792563 0.108694 0.115598
-0.0148293 -0.108769 0.0670375
-0.0333823 0.0753034 0.0862921
0.114698 -0.00947313 0.0553886
-0.0597775 0.0615818 0.0983954
-0.0521003 -0.114019 0.00239379
-0.0866699 0.143077 -0.117425
-0.0797849 0.0527587 0.0061203
-0.0615717 0.0734203 -0.127488
0.117526 0.00581253 -0.0678868
0.121084 -0.0676922 0.0804777
0.068367 0.0237903 -0.0971391
0.0605885 -0.109593 0.0603646
-0.151663 -0.0592176 0.0281928
-0.154142 -0.0750232 -0.0127335
-0.0492091 0.147272 0.0377874
-0.154531 -0.0678715 0.0257324
-0.0710772 0.193367 -0.0969007
-0.127719 -0.0698848 0.0830976
0.0635979 0.208887 -0.0122154
-0.142761 -0.0641386 0.0459007
0.0261542 0.0341211 0.165502
-0.0529971 0.0670788 -0.118164
-0.00593294 -0.12159 -0.00906433
-0.128646 -0.036982 0.132856
0.105094 -0.0167697 0.111264
0.0525661 0.182059 -0.10833
-0.0845996 0.061118 0.0719612
0.0548665 0.200355 -0.00218422
0.0720285 -0.0947956 -0.136867
-0.158874 -0.0682989 -0.0310572
-0.155835 -0.0629049 0.00499006
-0.155192 -0.062353 0.00890385
0.129018 -0.0857176 0.0452393
-0.148059 -0.0613153 -0.0134255
-0.0716437 0.201019 0.00857566
0.109277 -0.104007 -0.090204
-0.129809 -0.0446126 0.0808685
-0.152076 -0.0693897 -0.0124249
-0.0565407 0.143843 -0.128266
-0.11328 -0.0924683 -0.0842801
-0.0645721 0.0418073 0.146033
0.0335046 0.100244 0.0935393
0.0487022 0.0342317 0.152379
-0.141683 -0.0783931 -0.0814258
-0.141237 -0.078813 -0.077677
0.0859466 -0.104798 0.0567247
-0.0781713 0.210695 -0.0379471
-0.0967642 0.172146 -0.0992301
-0.132541 -0.0917891 -0.0740985
0.0649503 0.0751829 0.0957752
-0.0502016 0.17718 0.0302494
-0.160417 -0.0706712 -0.0520213
-0.0760258 0.117333 -0.139924
-0.0396084 0.148913 -0.132887
-0.0963745 0.0519196 0.000231767
0.0898505 -0.0479787 0.124323
0.000941113 0.201328 -0.103027
-0.0108388 0.109673 0.116107
0.104557 -0.0248083 0.113659
-0.0319768 0.0855443 0.142623
-0.0580969 0.0666859 0.0803987
0.102463 -0.0164153 0.137209
-0.0172471 0.127318 0.0501851
-0.156453 -0.0808404 -0.0583651
-0.159489 -0.071498 -0.0607165
-0.127123 -0.0935858 -0.0764654
-0.12936 -0.0926222 -0.0754469
-0.142159 -0.0774444 -0.0858002
-0.011388 0.168387 0.0411075
0.10816 -0.104299 -0.0940501
-0.122336 -0.0320899 -0.0872551
-0.0737204 0.10818 -0.195508
-0.0757101 -0.100907 -0.0977778
-0.0984483 0.0334783 -0.0858634
-0.108288 0.0175733 -0.0767341
-0.088111 0.0506711 -0.0898275
0.00246494 0.0454196 -0.166225
-0.0973696 0.0459104 -0.000684708
0.0369768 0.0649289 0.153448
0.0422026 -0.0613092 0.154708
-0.113007 0.0802835 -0.0889301
-0.0871787 0.0518829 -0.090862
-0.076027 -0.107722 0.00814391
0.112964 -0.106576 -0.0710966
0.067581 -0.022988 -0.163244
-0.0750057 0.0456125 -0.0628593
-0.043048 0.0978524 0.0396929
-0.0968971 0.0439842 0.0345844
0.0522196 0.0343508 0.151099
-0.0761028 0.0641229 -0.00171556
-0.153193 -0.0601743 0.0212639
-0.080813 0.0866965 -0.000989996
0.0806128 0.0420403 -0.0748919
-0.0756519 0.0638725 -0.00249724
-0.0537831 0.052021 0.144654
-0.140446 -0.0455589 0.043037
-0.0753969 0.0488116 -0.0572634
-0.0750435 0.0375499 -0.0787884
0.127533 -0.0964422 -0.0545471
-0.119093 -0.0888652 -0.0774985
-0.123927 -0.0870594 -0.0687273
-0.124269 -0.0869899 -0.068478
-0.122229 -0.0881131 -0.0738024
-0.110149 0.0130194 -0.0825214
-0.0622524 0.0930667 0.114287
-0.0407598 0.206699 -0.101545
-0.0405428 -0.116099 -0.000540113
0.0361539 0.0996872 0.0898714
-0.0663482 -0.0176716 -0.118736
-0.131776 -0.0782118 -0.0674778
-0.0963307 0.0440344 0.035954
-0.143427 -0.0684519 -0.107826
-0.00677301 0.126121 0.0503248
-0.111445 -0.0939427 -0.0866318
-0.0722313 0.0662983 0.0790217
0.126141 -0.0942835 0.0195873
-0.0689105 -0.102076 -0.0993497
-0.0600822 -0.104412 -0.102271
-0.0560954 -0.0478263 0.173406
-0.0791067 0.12463 -0.129732
-0.0627746 -0.045606 0.172541
-0.123648 -0.0872277 -0.069036
0.0522256 0.200013 -0.0934089
-0.0980521 0.18841 -0.0698161
0.103834 -0.0455287 -0.103759
-0.143635 -0.0591716 -0.117142
-0.0623104 0.0736252 -0.12287
-0.0973574 0.0357042 -0.0857899
-0.0873536 0.0382127 0.0796006
-0.100079 0.0306329 -0.0854795
0.0367258 0.203974 0.00868841
0.114403 -0.106158 -0.0652152
-0.0613201 -0.0173987 -0.121001
-0.0643274 -0.0175896 -0.119521
0.0234671 0.0737264 0.0809196
-0.0287311 -0.117688 -0.00337796
0.0165228 0.103446 0.117163
0.103381 0.0120736 0.047084
-0.0364606 -0.117009 -0.00136451
-0.0387661 -0.106853 -0.109824
-0.109352 0.0177785 -0.075507
0.0434155 0.190325 -0.108224
-0.00162858 0.217932 -0.0456934
0.0593508 -0.125539 -0.0275561
-0.110226 -0.0769203 0.0784205
-0.0168214 -0.108157 -0.118441
-0.0201412 -0.108104 -0.117066
0.0773108 0.0593356 -0.0334126
0.112402 -0.106731 -0.0727132
0.0403613 0.0411081 -0.109213
-0.0841352 0.0518086 0.00551589
-0.0353449 -0.0175221 -0.134209
-0.0930123 0.204298 -0.0480644
-0.106225 0.0158929 -0.0934484
0.0714182 0.0943936 0.00390915
-0.106158 0.0155325 -0.0940895
-0.0542688 -0.0173154 -0.124195
-0.0818464 0.0336602 -0.0866058
-0.0753647 0.116298 -0.144192
0.0791844 0.0398302 -0.0420292
-0.0797305 0.0354311 -0.0841174
-0.0997284 0.0585866 -0.00886107
-0.0787136 0.123763 -0.1306
-0.0607489 0.073538 -0.137633
-0.0959737 0.168517 -0.102683
0.0523346 0.210832 -0.0626276
0.0666731 0.156296 0.0242465
-0.0541338 -0.104998 -0.104163
-0.0780496 0.125669 -0.134787
-0.0113168 -0.120311 -0.0078082
0.0625274 0.157415 -0.121407
-0.103434 0.0253586 -0.0845406
0.060749 0.0227832 -0.143748
-0.14591 -0.0550985 0.0581887
-0.142942 -0.0526283 -0.121069
-0.108177 0.0175399 -0.0773248
-0.0231944 -0.118524 -0.00486669
-0.104594 0.0232277 -0.0845525
-0.143743 -0.0612359 -0.115405
-0.0980479 0.0473462 0.0129967
-0.094787 0.165345 -0.105126
0.0369966 -0.0615297 0.156771
0.134937 -0.0208916 -0.0300168
-0.110238 0.0161274 -0.0957357
-0.0755381 0.115085 -0.150381
-0.074889 0.114678 -0.15269
0.0576558 0.0578306 -0.0620414
0.0660401 0.139 0.027655
-0.0752439 0.114845 -0.151924
-0.0649374 0.0848626 -0.168536
-0.102674 0.0146717 0.0779428
-0.0818959 0.210627 -0.0385725
0.0660645 0.14073 0.0281093
-0.0633503 0.0832669 -0.16342
-0.0763532 0.03108 0.147077
0.051061 0.195411 -0.10254
-0.111869 0.0111402 -0.0815917
-0.112064 0.0110698 -0.0815778
-0.112641 0.0117632 -0.081371
-0.112367 0.0112691 -0.0815194
0.134201 -0.0854748 0.0168439
-0.0615715 0.0734084 -0.129656
-0.028487 0.092788 -0.211167
-0.0902021 0.0164965 0.147875
-0.0618283 0.165796 -0.120534
-0.0305012 0.0944191 -0.209
-0.0141936 0.0745228 0.0678317
-0.145261 -0.0549034 0.0609385
-0.111235 -0.00544199 0.10464
0.109242 -0.124192 -0.0446458
-0.110542 0.0145027 -0.0960359
-0.00393791 0.10716 -0.207673
-0.0761396 0.0582834 -0.0318534
-0.110122 0.0152108 -0.0960044
-0.122288 -0.0300918 -0.0856198
-0.0754303 0.117569 -0.137785
-0.093382 -0.0995072 -0.094454
-0.0278024 -0.0175007 -0.137413
0.0428643 0.0574686 0.156007
-0.0896856 -0.100165 -0.095395
-0.0756866 0.116914 -0.141768
-0.110201 0.0164685 -0.0959388
-0.111266 0.0115906 -0.0820997
-0.0237722 -0.108091 -0.115649
-0.048261 0.0719594 0.0892857
0.00447782 -0.122346 -0.0114916
-0.143198 -0.0677019 -0.109045
0.07368 0.0166065 -0.097023
0.105107 -0.0701208 -0.105912
-0.0307914 0.0939843 -0.206813
-0.0625586 0.0736995 -0.120677
0.0775764 -0.0938278 -0.138784
0.0799912 -0.0930973 -0.139714
-0.0785993 0.123705 -0.134278
0.12817 -0.101767 -0.0520146
0.0938014 -0.0871452 -0.132121
0.106591 -0.107466 -0.0874216
0.0259489 0.0408128 -0.165488
-0.110743 0.0184261 -0.0744145
0.00503275 0.169353 0.038549
-0.0731805 0.130586 -0.121996
0.0156905 -0.107003 -0.13066
-0.0373936 0.200833 0.0169078
0.0691181 0.115193 0.019898
-0.0516147 0.109642 -0.161775
-0.00152849 0.14376 -0.139554
0.0481829 0.0608193 -0.149103
0.052535 0.12312 -0.140819
0.0362291 0.123309 -0.189869
0.0680297 0.107534 0.0159388
-0.0263776 0.099557 0.145975
0.0205383 0.117141 -0.209086
0.00691464 0.109194 0.115646
-0.0112358 0.104296 -0.204723
0.062259 0.214675 -0.0243713
0.0440651 0.0650308 -0.159364
0.0454615 0.0634741 -0.155838
0.128125 -0.0750992 0.0684281
-0.0978018 0.0488232 0.00820285
-0.0231516 0.0531672 -0.159765
0.114903 -0.105621 -0.0612603
0.00907984 0.217769 -0.0482687
-0.0439329 -0.0172326 -0.129785
-0.0892127 -0.0179105 -0.111386
0.0619644 0.0384728 -0.123222
0.0477914 0.0768555 0.0485862
0.123443 -0.101422 -0.0292451
-0.0407699 0.0935901 0.109
-0.077661 0.121015 -0.133299
-0.0201347 0.173976 -0.128807
-0.0308438 0.0941542 -0.207478
0.0618067 0.0397076 -0.123903
0.0643679 -0.0576348 0.141888
-0.089024 0.150576 -0.113194
0.103581 -0.0795117 -0.106946
0.0615178 0.0302517 -0.134156
0.0951087 -0.0889998 -0.129444
0.0598074 0.0443525 -0.126726
-0.0580321 -0.112369 0.0037824
0.0359326 -0.125063 -0.0190795
0.0687165 0.175445 0.0145733
0.10251 -0.100526 0.0556449
-0.0640005 0.185105 0.0190521
-0.0343337 0.0664082 0.0516339
-0.00083366 0.0461568 -0.165905
-0.0408802 -0.0174322 -0.131547
0.0104997 0.175581 -0.133909
0.0383366 0.0817606 -0.185862
-0.0775274 0.12348 -0.13493
0.0672024 -0.0197446 -0.162579
-0.0858894 -0.0178375 -0.11185
0.0789933 -0.0620759 -0.157583
0.0806964 -0.0654033 -0.155253
-0.0637026 0.184257 0.0191806
0.11953 -0.103425 -0.0456448
0.0295892 -0.106026 -0.134062
0.118835 -0.100929 -0.0676067
0.0131649 0.110915 -0.208561
0.140308 -0.00995567 0.00566456
0.117593 -0.100975 -0.0703343
0.0445497 0.128194 -0.140377
0.0526032 0.0531316 -0.135939
0.0305218 -0.124195 -0.0176871
0.0899386 -0.0811736 -0.139439
-0.057815 -0.0173762 -0.122767
-0.111596 0.0113558 -0.081778
0.11412 -0.0411091 0.110417
0.13454 -0.0510384 -0.0641368
-0.0814903 0.059115 -0.0952687
0.0685611 0.0627814 0.0449169
-0.0768323 0.127998 -0.122468
-0.0789162 0.125616 -0.134112
0.066026 -0.108233 0.0592379
0.113039 0.00925974 -0.0340199
0.058436 0.216424 -0.0453131
-0.0564895 0.132691 0.040885
0.0429555 0.0661966 -0.162065
0.11189 -0.106871 -0.0741165
0.0676862 -0.0270169 -0.163831
0.105928 -0.103375 -0.101388
0.0449691 -0.0245853 -0.166321
0.129565 -0.0704269 0.0602993
-0.0739597 0.0605297 -0.0225107
0.068138 -0.0296233 -0.164138
-0.0646275 0.0841615 -0.166692
-0.0206638 -0.0178685 -0.140855
0.0912621 -0.0106632 -0.0997468
-0.0978473 -0.0987746 -0.0932734
0.0885925 -0.124379 -0.0376131
0.124844 -0.100554 -0.0227048
-0.00515769 -0.0191907 -0.148097
-0.0763041 0.122592 -0.137511
0.00524709 0.200347 -0.103025
-0.00827258 -0.0188602 -0.146726
-0.0794271 0.0905255 0.00128557
0.117615 -0.104377 -0.052156
0.113628 -0.106335 -0.0686229
0.116126 -0.119334 -0.0466735
0.109171 -0.107251 -0.0806018
0.139353 -0.0320119 -0.0275888
-0.0471875 0.156272 0.0357651
0.0571996 0.126706 -0.148894
0.127306 -0.0922753 0.0278912
0.111103 -0.103736 -0.084389
0.0240697 0.194974 -0.105829
0.0232697 -0.114887 0.0661284
-0.0963465 0.0481192 0.0611731
0.0604359 0.16634 -0.118551
-0.10301 0.0392412 0.0556652
-0.0908659 0.0491251 0.0511268
-0.146877 -0.0743719 0.0231955
-0.0736674 0.0408654 -0.0713704
0.060525 0.0694489 0.0219929
-0.122578 -0.0400974 -0.0515341
-0.0807934 0.0605141 -0.0957888
-0.0736567 0.0402065 -0.0726646
0.0235737 0.0911818 0.034605
0.0611488 0.0701406 -0.0242188
-0.000905301 0.0751976 0.0831139
0.121091 -0.0689861 0.0788245
0.0793622 0.017943 0.147584
0.0555949 0.129335 -0.152755
0.0470129 -0.0608138 0.152286
0.06195 0.0355045 -0.121624
0.0507246 0.0471226 -0.0909017
-0.0722394 -0.101327 -0.0984174
-0.0747598 0.0719504 -0.105736
0.0534351 0.122517 -0.149827
-0.0271914 0.216969 -0.0409093
0.0655056 0.0738267 -0.0076635
-0.113129 -0.09546 -0.0797663
0.115984 -0.101361 -0.0733372
0.0245419 -0.122974 -0.016556
0.0781851 0.0263997 0.141343
-0.097263 -0.0810707 0.07583
0.0110398 0.0436243 -0.166915
-0.0906369 0.0286848 0.097215
-0.0369081 0.0705961 0.075468
0.0673239 -0.0566296 0.139683
-0.0989106 0.0451085 0.0218868
-0.0334602 0.0675797 0.0198522
-3.04431e-05 0.205826 0.0172063
-0.102249 0.0273524 -0.0849706
0.0943479 0.0279806 0.0379997
0.0877817 0.035712 0.0312193
0.037178 0.0992494 0.0885352
0.0705184 0.0678561 0.00396673
-0.0799205 0.210695 -0.0382157
0.0988659 0.0204271 0.0428904
-0.122356 -0.0278252 -0.0837807
0.133386 -0.0697561 -0.0620624
-0.0608959 0.0806494 -0.155579
-0.0620501 0.19843 -0.0987829
-0.0737981 0.0420479 -0.0691463
-0.110241 0.0147482 -0.0961575
0.120364 -0.0553563 0.0989299
-0.000290271 0.0655681 0.0506792
-0.0685688 0.0575855 0.00900261
0.1452 -0.0794744 -0.0210518
-0.0224328 0.0334697 0.172389
0.124235 -0.0747 0.0727128
0.127986 -0.0739261 0.0704516
0.123336 -0.0737052 0.0738705
0.0606439 0.0667832 -0.036237
-0.114493 -0.0910546 -0.0825208
0.0314751 0.0891981 0.0322903
-0.0886804 0.0578917 0.0395643
-0.109726 0.0165902 -0.0963817
0.0626013 0.154289 -0.122502
0.0996521 -0.0474026 0.122333
-0.1182 -0.0252365 0.108846
-0.103676 -0.0978066 0.0146069
0.0140553 0.100329 0.134001
-0.0700913 0.0935678 -0.185087
-0.0392858 0.0692551 0.143571
-0.143741 -0.0643811 -0.112403
0.0388414 0.124396 -0.184094
0.0704932 0.0695502 0.00383896
0.0335221 0.204711 0.0105047
0.0264378 0.0800637 0.146112
-0.0988905 0.0464681 0.0175852
-0.0990507 0.0459589 0.0190388
-0.106142 0.0153149 -0.0941847
-0.0708551 0.0958488 -0.188219
-0.0925529 0.205491 -0.0461309
-0.0310027 0.103073 0.124908
0.0368692 0.132204 -0.140391
0.108111 0.0190169 -0.0690066
0.0494595 0.21299 -0.0611776
0.0403392 0.0715673 -0.172609
0.0524277 0.132064 -0.161443
-0.0703005 0.0951992 0.00891045
-0.0164713 0.148315 -0.135815
-0.0711115 -0.0423824 0.170497
-0.00924746 0.175515 -0.130757
0.0463148 0.12713 -0.140358
-0.0804567 -0.0884883 0.073756
0.0524005 0.201054 -0.089246
-0.0761397 0.118545 -0.136326
-0.0735847 0.161389 -0.118232
0.0152655 0.104745 0.122859
-0.0578677 0.0478872 0.145209
0.03599 0.192423 -0.107395
-0.0697832 0.0951141 0.00939126
-0.0742616 0.0629072 -0.00802938
0.0565091 0.127718 -0.150527
0.0408157 -0.125186 -0.0207579
0.114371 -0.101934 -0.0764874
0.0318793 0.0750529 0.151794
-0.0194909 0.10962 0.117125
-0.028829 0.0930889 -0.21108
0.0146924 -0.122487 -0.0139324
0.0687255 0.117946 0.0211882
0.0688852 0.113156 0.0189792
-0.047739 0.0618453 -0.13914
0.0470589 0.212812 -0.0603132
-0.0326739 0.208622 -0.102939
-0.0709844 0.0365883 0.146794
-0.0267296 0.0771317 0.0843868
0.0405713 0.0873186 0.0285081
0.0144634 0.105118 0.127674
0.00874841 0.109736 0.115517
-0.0212016 0.0961821 0.0429095
0.0943785 -0.124684 -0.0395243
-0.01945 0.0774734 0.0835904
0.0950896 -0.0168623 -0.100781
-0.060802 0.0376425 0.15141
-0.0192485 0.148928 -0.13468
0.0159979 -0.114484 0.0665649
-0.13649 -0.0341847 0.0414843
-0.0600548 0.0365101 0.151722
-0.0566807 0.127401 0.0409417
0.0632866 0.2136 -0.0188729
0.0519052 0.0487506 -0.0865823
-0.0473818 0.0760954 0.106515
-0.0812281 0.0523339 0.00589538
-0.0462558 0.06079 0.144125
0.0400984 0.191417 -0.107865
0.0364912 0.0994762 -0.201752
-0.0364465 0.0674973 0.0192238
-0.115211 0.0241992 -0.0395584
-0.0930896 0.161834 -0.107333
-0.0751304 0.0501023 -0.0546273
-0.121497 -0.00867113 -0.0683355
0.0239733 0.0828085 0.144633
0.00131866 0.176103 -0.132412
-0.0675252 0.136864 -0.124682
-0.0735378 0.062408 -0.0115664
0.0296295 0.11961 -0.198903
0.0616697 0.129169 -0.13184
-0.088661 0.214713 -0.0264669
-0.0353962 0.128921 0.0520649
-0.0569136 0.120617 0.03969
0.111424 -0.0951966 0.0547262
-0.029733 0.0943933 0.105005
-0.120145 0.000588767 -0.0606819
-0.12113 -0.00395075 -0.0645939
0.0664669 0.149614 0.0265047
0.122856 -0.000163488 -0.0322413
-0.0378507 -0.0175116 -0.132976
-0.00566133 0.0953868 0.100067
-0.0370649 0.0724521 0.143179
0.129755 -0.00938155 -0.031662
0.0482021 0.0427963 -0.101802
0.0655506 0.178764 0.00862487
-0.068113 0.194306 -0.0970536
0.104444 -0.0748407 -0.106424
0.0668469 0.159931 0.0226386
0.0198664 0.0738296 0.0809983
-0.0908118 0.0481174 0.0492583
-0.0682338 0.196001 0.0122971
-0.0477233 0.171509 0.0318736
0.0357018 0.0670307 0.153176
0.016703 0.0942412 0.137539
0.0610691 0.0679705 -0.0321172
-0.0804721 0.0879551 -0.000197068
-0.0459821 0.0817111 0.11045
0.024309 -0.0229693 -0.161193
-0.0172725 0.0953202 0.101464
0.068697 0.171131 0.0175064
0.0687593 -0.0325749 -0.164248
0.000836173 -0.0593846 0.168646
0.0382185 0.0843508 -0.188592
0.0255315 -0.106251 -0.133188
-0.0562763 0.127924 0.0422911
-0.0804649 -0.100898 -0.0971121
0.0618068 0.125423 -0.131538
0.0830863 0.00522812 0.152559
0.0664522 0.135112 0.0268453
-0.0566603 0.128293 0.0414459
0.024404 0.205744 0.0136221
-0.0133684 0.0952822 0.100924
-0.0889605 0.0526154 0.0578908
0.0553515 0.165191 0.0345609
-0.0466767 0.0687969 0.0782909
-0.0537895 0.111676 -0.158915
0.0279706 0.118895 -0.200294
-0.0363491 0.0737895 0.142988
-0.0874623 -0.104236 0.0109685
-0.0274431 0.103005 0.13448
0.133237 -0.0755296 -0.061137
0.08224 0.0406736 0.0264414
0.0610708 0.16314 -0.119553
-0.0947797 0.0445077 0.0393784
-0.0729152 0.210892 -0.037268
0.0308649 0.0677063 0.0241752
0.107154 -0.105209 -0.0996366
-0.0613905 0.0812053 -0.156816
-0.010916 0.218638 -0.0439516
-0.0451921 0.21517 -0.0373452
0.0736297 0.0533504 0.0132292
0.0725121 0.0597134 0.114111
-0.09026 0.186421 -0.0939785
0.0387534 0.0621381 0.15386
0.111232 -0.107146 -0.0764496
0.103823 -0.0196614 0.134111
-0.0160123 0.205315 -0.10338
0.0531753 0.12027 -0.143001
-0.148686 -0.0644958 -0.0128995
-0.0781035 0.191161 -0.0961141
-0.0897922 0.0509525 0.054964
-0.00500693 0.0470774 -0.165549
0.0594756 0.217308 -0.0377249
0.0551787 0.117653 -0.138064
0.0704649 0.0735693 0.00362668
0.114643 -0.0412244 0.110258
0.0406679 0.130095 -0.140053
-0.0744557 0.114684 -0.153294
-0.0854846 0.216291 -0.0156087
-0.125421 -0.0351928 0.140109
-0.0047905 0.0651135 0.0229554
-0.0713988 -0.0177884 -0.117119
0.0211705 0.113335 -0.20867
0.0644943 0.1627 0.0300565
0.0626567 0.214446 -0.0216169
-0.00585501 0.106419 -0.206606
-0.107062 0.0160024 -0.0906298
0.00045757 0.10817 -0.208711
0.0596766 0.113656 -0.130286
-0.0416858 0.0982703 -0.183752
-0.020811 0.0738709 0.069618
0.090891 -0.10356 0.0562685
-0.0402706 0.0678325 0.143698
0.0517332 0.198988 -0.0953733
-0.0919684 -0.0323049 0.163831
0.121639 -0.0905044 0.0556312
0.0679992 0.077244 0.000421826
0.0272739 0.0792242 0.146574
-0.0196059 0.206726 -0.103515
-0.0747972 0.0958225 0.00611314
0.0623933 0.0820619 0.0153605
0.0666468 0.12967 0.0262392
-0.120145 -0.0347898 0.110889
-0.019808 0.0517371 -0.161735
-0.138999 -0.0778042 0.0211431
0.0282309 0.0401548 -0.165396
0.0849293 0.0390016 -0.0736922
-0.0360707 0.1013 0.117297
-0.125354 -0.027905 0.0804834
-0.11653 -0.0895346 -0.0797918
-0.0244483 -0.0556832 0.173074
0.0364484 0.0786186 0.0790991
-0.04416 0.0739425 0.0877477
-0.0290832 0.0933946 -0.210933
-0.07277 0.202855 0.00691253
-0.0752871 0.0714859 -0.105163
0.126586 -0.0115971 -0.0670846
-0.0653189 0.189599 0.017612
-0.0962396 0.174433 -0.0953985
0.0586707 0.0602075 -0.0552494
-0.0268411 0.094538 0.144376
-0.0599406 0.109578 0.0318382
-0.0144947 0.0653627 0.0515175
0.0746216 0.0454973 0.126091
0.059148 0.061002 -0.0529582
-0.0738344 0.0396545 -0.0737841
0.136908 0.000294544 0.00182438
-0.0476715 0.153971 0.0362683
-0.0672647 0.120519 -0.14945
0.0609067 0.0292256 -0.136763
-0.0569249 0.126784 0.0407116
0.0525462 0.0831263 0.0197916
-0.14302 -0.0733094 -0.0984548
0.0727707 0.0475384 -0.0460913
-0.0351145 0.0767831 0.142714
-0.0919892 0.15947 -0.10905
0.0657359 0.182069 0.00781141
0.0615873 0.0320198 -0.120134
0.0651345 0.177487 0.00866885
-0.0159541 0.218436 -0.0430475
0.0662186 0.142185 0.0281438
-0.0725057 0.104614 -0.195545
0.0663724 0.145456 0.0275829
0.00741515 0.175835 -0.132995
0.0765281 0.0359818 0.135282
0.0604462 0.0650126 -0.0414245
-0.020158 0.0996204 -0.201694
0.0189503 0.112573 -0.208975
-0.111678 0.00177877 -0.0219951
0.0997679 -0.0921107 -0.107952
0.11593 -0.104965 -0.0568001
-0.141238 -0.0476556 -0.123134
0.0689599 0.116745 0.0205826
-0.127042 -0.0842336 0.0186411
-0.01405 0.10311 -0.203879
-0.118067 -0.0335734 0.143318
-0.112867 0.0121004 -0.0816172
-0.028184 0.102796 0.130738
0.0608842 0.0282527 -0.138539
-0.0966913 0.177743 -0.0884395
0.0483958 0.167123 0.0357395
-0.120724 -0.0882007 0.0174724
0.035045 0.0344706 0.160157
0.0926695 -0.085687 -0.134263
-0.0970035 -0.0297977 0.162372
0.105524 -0.0421285 0.115409
0.0037833 0.218359 -0.0468988
0.027164 0.135934 -0.140452
-0.0505602 0.168417 -0.121846
-0.0699514 0.121106 -0.146537
0.0635145 0.208055 -0.011272
-0.0750656 0.0580233 0.0461922
-0.0416665 0.147365 -0.130731
-0.0474116 0.169201 -0.122247
0.0609559 0.0684996 -0.030231
0.0675112 0.1263 0.0251984
-0.108359 0.0177552 -0.0762828
-0.01955 -0.0566421 0.172612
0.0732731 0.0537177 0.118498
-0.0821616 0.0462327 0.0820171
0.0394953 0.0747841 -0.177311
0.0534647 0.181049 -0.107683
0.0614307 0.140422 -0.129804
0.125155 -0.0962307 0.0100721
-0.0497304 0.098577 0.0379035
0.0254979 0.101999 0.101686
-0.142932 -0.0664502 0.047086
0.0703461 0.02065 -0.0968936
0.0488971 0.164122 -0.131275
-0.0687476 -0.0177236 -0.117976
-0.0748844 0.0444306 -0.0650373
-0.0580625 0.143228 -0.127871
-0.0272635 0.150565 -0.134422
0.11708 -0.0931233 0.0553341
-0.00942829 0.065071 0.0223298
-0.0681908 0.0390861 0.146546
-0.0226612 0.149764 -0.134582
-0.0313416 0.172125 -0.125119
-0.0532822 0.167617 -0.121325
-0.0104339 0.0767403 0.0835486
0.0585542 0.216667 -0.0437013
0.0366155 0.0806179 0.0593627
-0.0582286 0.105181 0.12322
-0.0289129 0.15065 -0.134199
0.0807994 -0.123321 -0.0347656
0.123863 -0.0990279 -0.0118925
0.065685 0.0815391 0.0148689
0.0755381 -0.123769 -0.0330635
0.0631446 0.0319392 -0.129641
0.103576 -0.0470234 0.121495
-0.0423185 0.0669803 0.0509331
0.123945 -0.101145 -0.0269731
0.114086 -0.106302 -0.0668678
-0.00969639 0.0952963 0.100537
0.0661984 0.185101 0.00703399
-0.0280912 0.0901813 0.142711
-0.0949438 0.0557971 -0.0112268
-0.0241139 0.0771543 0.084274
-0.095958 0.185532 -0.0685722
-0.0767497 -0.0178186 -0.115077
0.0271428 0.0744373 0.0807923
0.0577836 0.199229 -0.00505267
0.0341231 0.100199 0.0927992
0.0340889 0.170126 -0.134636
-0.0752555 0.0511488 -0.0522727
-0.0346395 0.0786468 0.142819
-0.0298495 0.165682 0.0409217
-0.123967 -0.0369679 -0.0904177
0.0619917 0.198697 -0.00732193
-0.0710386 0.121406 -0.14522
-0.00926451 0.0483063 -0.164974
0.124884 -0.0378921 0.0584105
0.048524 0.046535 0.15306
0.0269307 0.169488 0.0359773
-0.0585615 0.111915 0.0348201
0.00340408 0.0957679 0.0994627
-0.0448531 0.169662 -0.122523
-0.0554777 0.166925 -0.120889
-0.0307319 0.216574 -0.0402981
0.0214934 0.103719 0.106856
-0.0479016 0.103027 -0.169234
-0.0596454 0.117404 -0.15489
-0.0286473 0.092672 -0.211117
-0.105539 0.027585 0.0062153
0.00775294 -0.0208636 -0.154045
0.0552904 0.0819002 0.0582357
0.0280164 0.101177 0.0992046
-0.0432176 -0.0998649 0.068564
-0.115411 -0.0136804 0.146367
-0.0742309 0.0722206 -0.106617
-0.0890486 0.0532603 0.0587442
-0.0770136 0.119721 -0.134894
0.120967 -0.102903 -0.0410769
-0.120269 -0.0885852 -0.0762994
-0.143044 -0.0758968 0.022096
0.0270159 -0.0232907 -0.161987
0.0027777 0.0651165 0.0236009
0.0516551 -0.102596 -0.136927
0.0473111 -0.103677 -0.136702
0.146709 -0.0677972 -0.0218963
0.0200153 0.0895602 0.140233
-0.0665101 0.0533924 0.0965192
0.0291033 -0.0235608 -0.162679
0.118805 -0.103725 -0.0478289
-0.0703319 -0.109384 0.00672565
-0.11027 0.0181872 -0.074558
-0.0557099 0.0499967 0.144883
0.0125253 0.197865 -0.10295
0.0222065 0.117078 -0.207703
0.00941806 0.199082 -0.102901
0.040703 0.0344619 0.158347
-0.0847264 0.0547059 -0.093125
-0.08245 0.0574948 -0.094564
-0.0728397 0.106193 -0.195587
-0.0731469 0.113167 -0.181457
0.0248353 0.102507 0.102708
0.0664189 0.136595 0.027091
0.0461827 0.06306 -0.154283
-0.0748417 0.113068 -0.186041
0.0399742 0.0741426 0.0478192
-0.0886647 0.0553162 0.0617471
0.0547119 0.130225 -0.154047
-0.0725941 0.105528 -0.19561
-0.0671758 0.194639 -0.097146
0.0240792 0.21575 -0.0521815
-0.0226526 0.20401 0.0175842
0.0698527 0.100354 0.00852494
0.1213 -0.101851 -0.0619114
0.0145454 0.0976475 0.136436
0.118253 -0.104042 -0.0498546
-0.0606112 0.0759866 -0.147748
-0.109353 -0.0210903 0.154083
-0.0606332 0.0793955 -0.1533
-0.117625 -0.0323564 0.144164
0.0800054 0.0144264 0.158283
-0.0729805 0.192617 -0.0966169
-0.0413987 0.200292 0.0164722
0.0738469 0.0497059 0.12199
-0.0503806 0.108633 -0.162599
-0.0492461 0.0628024 -0.135542
0.118988 -0.0505671 0.106025
-0.0843756 0.188864 -0.0955263
0.0788511 0.0208149 0.145256
-0.060426 0.0746132 -0.144436
0.0717072 0.0821745 0.00321567
-0.142327 -0.0499802 -0.122164
-0.0167937 0.101824 -0.203165
-0.0559934 0.126486 0.042388
0.035347 0.10001 0.0910505
-0.0480405 0.173308 0.0313265
0.124211 -0.0982317 -0.00531997
-0.075081 0.128792 -0.121788
-0.0696155 0.0730973 0.0901395
-0.0494385 0.198651 0.0175639
-0.0375049 0.17084 -0.123592
0.00606091 0.0336057 0.171821
-0.118183 -0.0249376 -0.0419959
0.12917 -0.0188674 -0.0666821
0.124676 -0.0978406 -0.00107656
-0.0875183 0.151917 -0.113133
-0.0114627 -0.0185529 -0.145257
-0.0999215 0.0444223 -0.0065519
0.0332413 0.0714454 0.153828
-0.0759527 0.0545066 -0.0433835
0.114622 -0.10591 -0.0632776
0.100517 -0.0129833 0.140284
0.0380621 0.0871472 -0.191437
-0.0435459 0.14703 -0.130596
-0.143261 -0.0550202 -0.119623
0.0338903 -0.105718 -0.134851
-0.0976258 0.181688 -0.0804354
-0.0828087 0.0235497 0.147146
-0.0468542 0.166666 0.0332657
-0.0469992 0.159012 0.0352348
0.124273 -0.0880833 0.0554266
-0.0861267 0.152537 -0.113303
-0.0870981 -0.0349851 0.165618
-0.106913 0.0158269 -0.0906772
-0.0916154 0.185774 -0.0937424
-0.0768041 0.208119 0.00153634
0.128762 -0.0503392 0.0604648
0.102775 -0.0398313 -0.103109
0.0713861 0.0883975 0.00241602
0.0625556 0.143561 -0.127722
0.0582319 0.0594654 -0.0574817
-0.0977825 0.189378 -0.0690023
0.0550177 0.0805234 0.0813698
-0.0277047 0.102919 0.132919
-0.143797 -0.0628965 -0.113405
-0.143766 -0.0616967 -0.114403
-0.024682 0.109593 0.117737
-0.143604 -0.0577299 -0.118081
-0.122097 -0.00848137 -0.00125511
-0.0503597 0.213996 -0.0369678
-0.126382 -0.0185089 -0.00589135
0.106296 -0.107384 -0.0889521
0.0157818 0.073658 0.0818249
0.0314171 0.0343917 0.161989
-0.026838 0.0947029 0.103895
-0.0338054 0.2165 -0.0397092
0.0464236 0.120406 0.0420296
-0.115733 -0.0915606 0.01676
0.0386183 0.0679518 0.0240719
-0.0968847 0.184186 -0.0741969
-0.1105 0.0124826 -0.0824684
-0.080726 0.157043 -0.115283
0.130835 -0.0661645 0.0604952
0.0471734 0.1315 -0.174392
-0.0892648 0.19171 -0.0159633
0.0372792 0.0798214 0.0783497
-0.0562766 0.197229 0.0162717
-0.118767 -0.0360411 0.144393
0.0454808 -0.125241 -0.0224778
-0.0610061 0.0768673 -0.149068
-0.0758636 0.21065 -0.037597
-0.122732 -0.0870343 -0.0709147
-0.0284779 0.102804 0.129834
0.129433 -0.0544716 0.0599995
0.0112105 0.0655666 0.0239707
-0.0397508 0.0669973 0.05106
0.0340676 0.0681968 0.0244124
-0.0543021 0.197728 0.0176111
0.0709978 0.18532 0.010893
-0.128424 -0.0361397 0.0808989
0.00126512 0.0749582 0.082842
0.00672553 0.0651689 0.0237043
-0.0835717 0.215821 -0.0108057
0.0604713 0.0658641 -0.0389323
-0.0553066 0.134339 0.0404974
0.121352 -0.0279359 0.0570898
-0.0967811 0.19296 -0.0649862
-0.0668447 0.19393 0.0143437
0.0455571 0.052572 0.155429
-0.0367662 -0.102319 0.0681091
-0.0331405 -0.0174724 -0.135347
-0.0594126 0.110583 0.0332337
0.106586 -0.0988524 0.0553084
-0.0971293 0.183567 -0.0765519
-0.086178 0.21626 -0.0177308
-0.00711168 -0.111097 0.0670581
-0.0626006 0.0737002 -0.118946
-0.0716058 0.162538 -0.119041
-0.0580324 0.0927443 0.113587
0.0662961 0.0822143 0.0153805
0.0512361 0.0479714 -0.0888317
-0.00130527 0.0953936 0.0995783
-0.0762845 0.12241 -0.13831
0.0232477 0.0698575 0.0479861
0.0544118 0.206554 -0.0647972
-0.0716985 0.132698 -0.122934
-0.0794738 0.158034 -0.116129
0.0795461 0.0430536 0.0688561
0.0281157 0.0784409 0.147244
0.031706 0.100413 0.0953398
-0.0938594 0.184872 -0.0937169
0.0324219 0.0727527 0.15341
-0.0518383 0.0545439 0.144625
-0.123382 -0.0875097 -0.0695467
-0.0569178 0.11941 0.0396131
0.0924922 -0.0474674 0.123238
0.020265 -0.106697 -0.131811
-0.111188 -0.0200311 0.153217
-0.118485 0.140209 -0.0646446
-0.0939706 0.186683 -0.0594709
-0.0297726 0.109612 0.118331
-0.0779373 0.0923618 0.00282767
-0.0754832 0.0551809 -0.0407225
-0.0548621 0.098819 0.0362531
0.0249695 0.0815924 0.145103
0.0820121 0.00482427 -0.0977033
0.0449265 0.0343483 0.156067
-0.0757823 -0.040399 0.169238
0.06848 0.119027 0.0217752
-0.0794067 0.0635777 -0.097981
0.0689376 0.103698 0.0120923
-0.0960177 0.194963 -0.0622732
-0.132791 -0.0609078 0.0821861
0.0527755 0.18215 -0.10798
0.0695215 0.101776 0.00980034
0.0613636 0.0291683 -0.119502
-0.0527759 0.110868 -0.160321
-0.0652664 0.120057 -0.151072
0.0442451 0.203101 0.00571195
-0.0838019 0.154441 -0.113995
-0.0287858 0.102841 0.128992
-0.0283565 0.12887 0.0501302
-0.0999405 0.182999 -0.0319111
-0.0823233 0.0520213 0.00555753
-0.0597031 0.199816 -0.0996251
0.066499 0.131326 0.0264761
-0.0435721 -0.106469 -0.108007
0.124352 -0.0994488 -0.0147419
0.0618594 0.025571 -0.119388
0.0724097 -0.0468939 -0.1632
0.124749 -0.100026 -0.0190975
-0.0634473 0.103403 0.0227352
-0.109578 0.0122124 -0.0120206
-0.0722715 0.201929 0.0076604
-0.0961375 0.17144 -0.099895
-0.0880321 0.018907 0.147794
0.00141436 0.218169 -0.0463263
-0.0309591 0.0559218 -0.154702
0.0576183 0.125226 -0.147242
0.0260451 0.117525 -0.203058
0.00311444 0.0747901 0.082535
-0.0218512 0.0950835 0.102321
-0.15486 -0.0618311 0.01175
-0.0493953 0.144752 0.0384032
-0.0636329 0.0736868 -0.115764
-0.0710974 0.0591916 0.0471055
-0.115891 0.0196685 -0.043556
0.0593243 0.11898 0.0362605
-0.0372119 0.0668016 0.0513025
-0.029619 0.102946 0.127235
0.132068 -0.0842201 -0.0588805
-0.0555186 0.213263 -0.0363897
-0.0346751 -0.107298 -0.111399
-0.0942479 0.0572066 -0.0121868
-0.097935 0.017581 0.0997279
-0.0171184 0.0334348 0.173012
0.133778 -0.0633496 -0.0629393
0.0625096 0.00866029 -0.152223
0.04122 0.0685126 -0.167336
-0.0194926 0.0655182 0.0206941
0.104672 -0.0412322 0.115529
0.0173925 0.103579 0.112578
-0.0614929 0.106053 0.0271026
0.0691362 0.0703449 0.102691
0.0532732 0.131879 -0.159104
0.0607043 -0.0584515 0.144294
0.0191185 -0.0223415 -0.159157
0.039796 0.060928 0.154429
-0.0700935 0.211226 -0.036943
-0.0775182 0.209204 0.00049974
-0.0536513 0.0671198 0.100565
0.0561914 -0.0592644 0.146968
0.0837065 -0.0691787 -0.150148
0.0314036 0.171282 -0.13483
0.0194533 0.0338063 0.168402
-0.0603538 0.0751909 -0.146223
-0.110964 0.0257135 0.0491122
-0.141808 -0.0540814 0.0442343
-0.117537 0.007088 -0.0547163
-0.0281621 -0.10798 -0.113976
-0.0505752 0.198429 0.017955
0.143326 -0.0474891 0.0148415
-0.116386 0.0137393 -0.0489618
0.0202606 0.101181 0.0965621
-0.0920952 0.0456519 0.0440469
0.0587536 0.110924 -0.13054
0.0692194 0.102747 0.0108872
-0.074295 0.129286 -0.121575
0.0161982 0.0985612 0.0983721
0.100891 0.00833873 0.100497
-0.0638194 -0.110541 0.00502406
0.12598 -0.076464 0.0700961
-0.0755065 0.117401 -0.138642
-0.132438 -0.0545812 0.0812677
0.00392199 0.108651 0.115698
-0.108895 0.01774 -0.0759218
-0.100572 0.00412756 0.148163
0.0514452 -0.060171 0.149751
-0.0983925 0.0473552 0.00567045
-0.0686536 0.120754 -0.14773
0.127356 -0.0820897 0.054055
-0.036819 0.100759 0.115894
0.0645132 0.172959 0.00959999
0.127952 -0.0784952 0.0624124
0.0137959 -0.0603619 0.164217
-0.0865162 0.058302 0.0668062
0.0129035 0.205836 0.0152082
-0.105887 -0.0171285 -0.103739
0.0132443 0.0970755 0.0992847
0.0180312 0.092319 0.138343
0.0888108 -0.0786283 -0.141662
-0.097115 0.0513149 0.00208939
0.121366 -0.0705959 0.0767489
0.0189699 0.0914638 0.138448
-0.087982 0.0572903 0.0415459
0.0252299 0.0740403 0.0809606
-0.0383009 0.0707507 0.143442
0.016128 0.111726 -0.208861
-0.0974953 0.182854 -0.0782887
-0.091823 0.0586814 -0.0130735
0.0877384 -0.0761695 -0.143882
-0.00431359 0.175898 -0.131682
0.128023 -0.081011 0.0572981
0.0747641 0.0493758 0.0611228
-0.107111 0.0161737 -0.0905969
-0.064272 -0.0934817 0.0714391
0.0566368 0.199446 -0.00430914
0.0721276 0.0846488 0.00290704
-0.0772845 0.159332 -0.116989
0.0699827 -0.124108 -0.0311823
0.0702293 0.0617477 0.00501746
-0.0447277 0.062828 0.144198
0.115049 -0.093868 0.0550893
0.0686434 0.111615 0.0181555
-0.0786065 0.0653442 -0.0993249
0.0500845 0.0431193 0.151844
-0.136802 -0.0383354 -0.0106316
-0.109617 0.0165839 -0.0964005
-0.0286682 0.0669388 0.0200177
-0.0738669 0.121954 -0.142705
-0.0609816 0.077805 -0.15045
-0.0332277 0.0566852 -0.152974
-0.0933084 0.0578645 -0.0126283
0.0988844 -0.101472 0.0557457
-0.0953178 0.0552692 -0.0104367
-0.142515 -0.0746918 -0.0942456
0.0507974 0.123771 -0.140167
0.0546162 -0.125479 -0.0257643
-0.0294991 0.0337257 0.171516
0.0624334 0.214569 -0.0222993
0.0394766 0.124964 -0.181586
-0.132348 -0.0200563 0.0403898
0.0659442 0.0743807 -0.00610681
0.0831617 0.0561079 -0.0298962
-0.111026 0.0114758 0.0103771
-0.120573 -0.0461509 0.114617
-0.0424232 0.034816 0.165968
0.0553519 0.204349 -0.0660236
-0.0629825 0.104109 0.0237528
-0.0837157 0.057227 0.043565
-0.0869727 0.0575459 0.065674
0.0599724 0.115847 -0.130767
-0.106473 0.0219911 0.0192708
-0.089608 0.0573426 0.0379856
-0.15055 -0.072126 0.0239436
0.116972 -0.104584 -0.0539054
0.0666874 0.158068 0.0234476
-0.0880894 0.0562247 0.0634826
-0.154452 -0.0612779 0.0147811
-0.158594 -0.0677166 -0.0260673
0.0240425 0.1168 -0.206068
-0.101632 0.0327653 0.0320683
-0.0599724 0.213133 -0.0363586
0.0329918 0.1691 0.0357852
0.107056 -0.10571 -0.09833
0.073222 -0.0495038 -0.162788
0.0665725 0.151183 0.0261377
0.0130363 0.0336941 0.169679
-0.0236657 -0.017691 -0.139254
-0.0979426 0.021703 0.0780226
0.0377357 0.0900104 -0.19424
-0.115492 -0.0149637 0.106689
-0.0646913 0.187784 0.0189734
-0.130111 -0.0716475 -0.0650186
0.0705363 0.0711306 0.0147294
-0.126304 -0.0551315 -0.0584042
0.146423 -0.0740983 -0.0214481
-0.153193 -0.0701061 0.0245212
-0.0363542 0.0341755 0.16908
-0.0852662 0.153209 -0.113537
-0.0942898 0.186283 -0.06354
0.0472149 0.0621198 -0.151913
-0.143071 -0.0537958 -0.120336
-0.113321 -0.0192837 -0.0955929
-0.0547653 0.144246 -0.128457
-0.0906631 -0.0816607 0.0742298
-0.116742 -0.0230927 0.146831
0.0157152 0.103885 0.119004
-0.00608258 0.109755 0.115491
-0.0767907 0.069685 -0.102912
0.0590031 0.0457548 -0.127663
0.0645308 0.171386 0.00980459
-0.0354291 0.0750186 0.0864841
-0.0973927 0.0439582 0.0326032
-0.0979128 0.0469252 0.00246377
0.0194838 0.090619 0.139259
0.0598098 0.15869 -0.125099
-0.0975541 0.0507172 0.00385222
0.0632234 0.214166 -0.0199607
-0.0820671 0.155927 -0.11464
0.0634108 0.210471 -0.0144495
-0.15833 -0.0787275 -0.0569267
-0.075701 0.0559046 -0.0387209
0.102609 -0.0841903 -0.107353
0.0142654 0.0990492 0.135375
0.131322 -0.0257317 -0.0662337
0.0710172 0.0911206 0.00260265
-0.120538 -0.0522109 0.116971
0.0628972 0.198452 -0.00860947
-0.121571 -0.0155946 -0.0735367
0.0560289 0.203337 -0.066747
-0.0594992 0.142507 -0.127409
-0.0876958 0.146267 -0.116287
0.0659533 0.139756 0.0278933
0.10479 -0.051775 -0.10429
0.0418971 -0.0245026 -0.16573
-0.0962289 0.0533674 -0.00416212
0.10525 -0.125079 -0.0434571
-0.0826062 -0.0177948 -0.11264
-0.094028 0.0279599 0.0772383
0.122117 -0.0722132 0.0748934
-0.0300458 0.102999 0.126429
0.14292 -0.0211233 0.00894459
0.039102 0.0795378 -0.1832
0.0535203 0.205029 -0.0799871
-0.0869707 0.052381 0.00626731
0.11297 -0.102673 -0.0795639
-0.0782144 0.056919 0.0456817
-0.117792 -0.0891517 -0.0786605
-0.113991 -0.0169913 0.147371
-0.103263 0.0289746 0.0272432
0.0610096 -0.0992823 -0.136895
-0.11766 0.00979233 0.0439442
0.0629683 0.214449 -0.0208066
-0.109691 0.0179211 -0.0750287
-0.0814166 -0.0378204 0.167511
0.0801839 -0.105549 0.0571741
-0.0607295 0.0785871 -0.151883
0.0710951 0.0895226 0.00250754
-0.14333 -0.06663 -0.110382
-0.054879 0.112526 -0.157657
0.0811272 0.0133373 0.150107
0.0157639 0.205802 0.014761
-0.0705146 0.0942495 -0.186229
0.0142959 0.0658366 0.0240552
-0.135067 -0.0800542 0.0203356
-0.090633 0.210191 -0.0408128
0.12397 -0.0986519 -0.00892923
-0.0587597 0.166281 -0.120665
0.069674 -0.0368832 -0.164385
-0.0520698 0.0669331 -0.117376
0.050971 0.0342745 0.150727
0.118076 -0.0183814 0.0561598
-0.0498578 0.10756 -0.163535
0.0368572 0.0940358 -0.197666
0.0149666 0.140175 -0.140775
-0.122522 -0.034348 -0.0890712
0.0684179 0.124191 0.0242113
0.0970359 0.0251299 -0.0365839
-0.106055 0.0150268 -0.0944012
-0.0714252 -0.0909439 0.0723055
0.0328732 0.21527 -0.0553325
0.0689929 0.0822535 0.0135233
0.0629234 0.119336 0.0331461
-0.153947 -0.0607502 0.0176937
0.078186 0.0108405 -0.0972106
-0.0746522 0.192053 -0.0962916
0.115353 -0.1053 -0.0590742
-0.0315002 0.103063 0.124169
0.106855 -0.107528 -0.086498
-0.104654 -0.0966917 -0.0903633
0.128143 -0.0799783 0.0593044
-0.0688427 0.0600702 0.0475877
-0.063655 0.119705 -0.152225
-0.0967576 0.176782 -0.0905493
-0.098342 0.187338 -0.0707713
0.0716387 -0.0445458 -0.163547
-0.107091 -0.0956086 -0.0889568
-0.075622 0.122042 -0.139955
0.0535647 0.119102 -0.140851
-0.09533 0.0443431 0.0383405
-0.114085 0.00657573 0.00716984
-0.0800841 0.0890782 0.000491187
-0.0429435 0.0648498 0.144025
-0.117767 -0.0347282 0.143817
-0.024858 0.166602 0.0414207
-0.0837221 0.055948 -0.0939463
0.0650865 0.0693045 0.021298
0.00738993 -0.0599541 0.166587
-0.0332853 0.102519 0.12141
0.120778 -0.0577022 0.0952243
0.0385427 0.0408283 -0.112485
0.0515001 0.0795989 0.04886
0.0603496 0.117975 -0.131089
-0.0507734 -0.0983192 0.0697812
-0.0883686 0.0532915 0.00686232
0.123145 -0.101745 -0.0316375
-0.0742164 0.108955 -0.194731
0.0407193 0.0697747 -0.169763
0.0595641 0.0617729 -0.0505724
0.0608814 0.0674288 -0.0342262
0.0230749 0.104149 0.0943151
0.0110026 -0.107467 -0.129453
-0.112882 0.0734234 -0.0914165
-0.0832892 0.0835633 -0.00341394
-0.0900541 0.190357 -0.0187312
-0.104615 0.00673112 0.101816
0.0151519 0.175466 -0.135023
-0.0409847 0.0657825 0.0176435
-0.11788 -0.0353219 0.143844
-0.0383114 0.0748486 0.0865784
-0.0306204 0.0866486 0.142337
-0.0395553 0.058932 -0.147822
-0.0968857 0.175899 -0.0925906
0.0557419 0.117105 -0.137056
-0.101913 -0.0980392 -0.09208
-0.0267395 0.0666288 0.0514559
0.0607966 0.0692203 -0.0279554
-0.017214 0.0774773 0.0833756
0.0602524 0.0432753 -0.126015
0.0466583 0.0494638 0.154127
0.0612149 0.0705838 -0.0214132
-0.03211 0.0718692 0.0735536
-0.0147591 0.174654 -0.129839
-0.045851 -0.114755 0.000672732
-0.0801794 0.213461 -0.00308395
-0.082254 0.189577 -0.0956808
-0.0801809 0.190426 -0.0959336
-0.102239 -0.0264498 0.159264
0.0497881 0.0454455 -0.0950521
-0.0851707 -0.0858033 0.0742566
0.0382099 0.0408341 -0.111887
-0.0885525 0.0575743 0.0401701
0.126283 -0.0849221 0.0547615
0.0542808 0.130675 -0.154923
0.0649143 -0.0975298 -0.136753
-0.107064 0.016209 -0.0906712
0.0273341 0.172642 -0.135517
-0.0188195 0.218444 -0.0422807
-0.00805268 0.0764764 0.0831984
0.0194967 -0.122544 -0.0152197
-0.101693 -0.0178693 -0.107475
-0.102239 0.0404576 0.0281199
-0.0183102 0.066178 0.0512912
-0.0969405 0.178898 -0.0859531
0.0265089 0.101629 0.100657
-0.138906 -0.0428117 -0.124377
-0.0379838 0.100238 0.114694
0.101145 -0.0886204 -0.107525
0.0817937 0.0115473 0.150592
-0.097727 0.0076081 0.148213
-0.0496446 0.106321 -0.164548
-0.053531 0.129792 0.0527676
-0.0906799 0.0471466 0.0475204
-0.0961097 0.170895 -0.100583
0.101416 -0.0310192 -0.102553
-0.0171253 -0.119335 -0.00641037
-0.117982 2.44156e-05 0.00353371
0.0527582 0.162635 -0.129985
0.0199459 0.216091 -0.0510462
0.0923637 0.0264471 0.0872017
-0.122047 -0.019147 -0.076593
-0.0873421 0.144828 -0.116655
-0.0737933 0.129869 -0.121761
0.0564197 0.202619 -0.0674891
0.0770268 0.033471 0.13668
0.0664018 0.133088 0.026644
-0.0760302 0.191685 -0.0961113
0.0622138 0.214773 -0.0231083
0.0611582 0.0415812 -0.124827
-0.0153047 0.147973 -0.136552
-0.0624399 0.0603213 0.0109913
0.108689 0.00178462 0.0511925
-0.120771 -0.0537418 0.117884
-0.00401168 0.1443 -0.139057
0.0478461 0.13164 -0.172652
0.0524408 0.201763 -0.0881466
-0.0298139 -0.054588 0.173902
0.0709074 0.0556878 0.0532096
-0.0800053 0.0619794 -0.0968394
0.068401 0.120241 0.0223853
-0.114711 -0.0111388 -0.0323864
-0.095328 0.166972 -0.103777
0.124887 -0.0967907 0.00661644
-0.0145647 0.109616 0.116537
-0.152421 -0.0596664 0.0247959
-0.115938 -0.0213355 0.146923
-0.0258516 0.0735325 0.0710923
-0.109924 0.0180523 -0.0747707
-0.0986587 0.0467582 0.0163505
-0.0038151 0.0758288 0.0828809
-0.0607791 0.141794 -0.126899
0.0282576 0.214286 -0.0538919
-0.123032 -0.0874036 -0.0703653
0.0305354 0.214133 -0.0547412
-0.00484237 -0.0583924 0.169501
0.0401759 0.168442 0.0359747
0.0769788 0.0473857 0.0193069
-0.0625801 0.0430963 0.145628
0.0651155 0.192309 0.00369221
0.068679 0.122364 0.0234284
-0.0623902 0.181365 0.0193797
0.0259904 0.106297 0.0923123
-0.0654051 -0.103004 -0.100474
-0.011212 -0.0576357 0.170843
0.128869 -0.0843482 0.0492917
-0.0039158 -0.108609 -0.123702
-0.140577 -0.044442 -0.0117122
