ply
format ascii 1.0
element vertex 819
property float x
property float y
property float z
end_header
0.108676 0.793998 -0.415538
0.106513 0.785502 -0.392517
0.0755481 0.833129 -0.494203
0.0904737 0.880008 -0.500945
0.03563 0.854367 -0.395657
0.0336516 0.859066 -0.403436
0.0415954 0.913818 -0.489519
0.0352142 0.855569 -0.3975
0.0329935 0.840011 -0.519293
0.0355151 0.839566 -0.517879
-0.0354705 0.882628 -0.558797
0.0294832 0.840715 -0.520694
0.0410444 0.834933 -0.368839
0.057535 0.881621 -0.529749
0.102261 0.810271 -0.463517
0.0764414 0.906187 -0.417217
0.0365598 0.852449 -0.392554
-0.143421 0.881819 -0.405552
-0.149764 0.860409 -0.499245
0.0479298 0.841595 -0.382636
0.0963112 0.77938 -0.364294
-0.168765 0.832928 -0.402541
0.0643863 0.776437 -0.33433
0.061559 0.776767 -0.333261
0.0743997 0.776768 -0.329997
0.0593054 0.880226 -0.329591
0.0524287 0.881979 -0.532812
0.138116 0.850442 -0.390648
0.0223525 0.872027 -0.311093
0.0201794 0.774318 -0.325485
-0.0146045 0.771694 -0.324058
-0.00862786 0.771377 -0.323718
-0.056958 0.858437 -0.442895
-0.00999967 0.771227 -0.323777
-0.0764245 0.823096 -0.50833
-0.00541139 0.771989 -0.323747
0.0125656 0.828155 -0.353414
0.021882 0.774664 -0.325603
-0.0731585 0.780694 -0.33192
-0.0672497 0.780002 -0.33038
0.0229649 0.82021 -0.26152
-0.0341327 0.913587 -0.496764
0.0217382 0.878175 -0.30323
0.0873593 0.778042 -0.345129
0.0454836 0.776949 -0.328786
0.0405655 0.836844 -0.370095
0.0702442 0.824061 -0.263961
-0.0715835 0.82712 -0.386204
-0.0798095 0.82145 -0.514154
0.0538718 0.776898 -0.330803
0.0381724 0.873783 -0.314837
-0.0693745 0.78029 -0.330982
-0.0223159 0.821425 -0.267776
-0.0269055 0.822083 -0.33222
-0.0129219 0.826844 -0.342825
-0.0738912 0.822827 -0.509852
-0.0933424 0.817429 -0.313288
0.0470964 0.841486 -0.381098
-0.137788 0.880528 -0.395418
-0.0832619 0.868515 -0.306623
0.0758913 0.904898 -0.389708
0.0729854 0.834493 -0.495526
-0.152093 0.859554 -0.496785
0.0736318 0.902923 -0.372018
0.0504396 0.777107 -0.329943
0.0411263 0.836976 -0.364378
0.0254224 0.876359 -0.428386
0.0239496 0.877174 -0.430233
0.0288382 0.871635 -0.421065
0.0121274 0.869718 -0.309675
-0.0107478 0.869426 -0.310113
-0.0271344 0.821279 -0.269873
-0.0395559 0.825695 -0.528983
0.0540928 0.822995 -0.264603
0.0469922 0.876442 -0.318961
0.044608 0.875716 -0.317762
0.0546833 0.881919 -0.53157
-0.0142319 0.827009 -0.342209
0.0756001 0.824334 -0.265703
0.12042 0.82955 -0.298357
0.0812241 0.824727 -0.267987
-0.0803871 0.846038 -0.425722
0.0600822 0.823521 -0.264625
0.135631 0.85422 -0.405466
0.0490131 0.8769 -0.320135
0.041405 0.836615 -0.365102
0.0406391 0.837287 -0.363854
0.0152342 0.870111 -0.310072
-0.0367457 0.822935 -0.337933
0.128668 0.839553 -0.329166
0.0796127 0.830334 -0.491059
-0.00936021 0.868923 -0.309492
0.0239273 0.87744 -0.304149
0.137009 0.852157 -0.397551
-0.0972243 0.911365 -0.482494
-0.143654 0.881193 -0.403997
-0.0732145 0.914601 -0.491294
0.0149944 0.828326 -0.354846
0.0709485 0.900173 -0.360357
-0.0352612 0.86392 -0.455789
0.0791838 0.90744 -0.416046
0.0984128 0.779985 -0.369528
0.0795856 0.907315 -0.426165
0.079265 0.907129 -0.432472
-0.136696 0.899184 -0.446398
0.108501 0.795421 -0.419575
-0.0997124 0.795218 -0.364013
-0.175725 0.854587 -0.474209
0.11976 0.868594 -0.459824
0.0824042 0.777009 -0.336744
0.108413 0.796957 -0.424722
-0.120756 0.87139 -0.344693
0.138534 0.839901 -0.353249
0.0782052 0.907945 -0.440453
0.103888 0.783129 -0.384208
0.0443978 0.837336 -0.511316
-0.114157 0.804037 -0.385626
-0.00424445 0.869489 -0.459004
-0.139722 0.877491 -0.388053
0.0733937 0.902307 -0.370257
-0.143853 0.87816 -0.399187
0.0502922 0.840079 -0.505556
0.0369365 0.851228 -0.390596
0.0340742 0.915106 -0.493038
0.0488172 0.839584 -0.505065
0.0470615 0.840323 -0.379068
0.0747891 0.908429 -0.448147
0.139168 0.843738 -0.36555
-0.177385 0.835445 -0.413168
0.0772461 0.906845 -0.412936
0.043743 0.912839 -0.48698
-0.185578 0.852426 -0.451581
0.071785 0.882563 -0.520379
-0.00510914 0.820846 -0.264656
0.0786762 0.908021 -0.436446
0.0789737 0.907616 -0.434585
0.0784508 0.908078 -0.438291
0.0443117 0.83795 -0.373594
0.0431507 0.835957 -0.371038
0.0373053 0.84997 -0.388699
0.0279869 0.872659 -0.423041
0.0891855 0.825407 -0.271907
-0.0863626 0.781585 -0.339835
0.0131816 0.877146 -0.449421
0.0119046 0.876303 -0.450381
0.026024 0.876028 -0.42811
-0.139056 0.878395 -0.386557
0.0665394 0.909766 -0.462232
0.0918447 0.821605 -0.481806
-0.0855717 0.780778 -0.338108
0.0713653 0.909983 -0.452641
0.103646 0.808379 -0.458016
-0.0834747 0.779671 -0.335425
0.0693622 0.909702 -0.458427
0.0718553 0.909138 -0.451766
0.0673689 0.880625 -0.523464
-0.107257 0.867083 -0.525813
0.0515456 0.840774 -0.505425
0.0663363 0.837177 -0.50042
0.0512085 0.910809 -0.47819
-0.0274569 0.914373 -0.497233
-0.015179 0.826987 -0.341351
0.0938878 0.878202 -0.494708
-0.0815284 0.914672 -0.489546
-0.048593 0.861527 -0.449771
-0.0229913 0.915281 -0.497796
0.0733004 0.88245 -0.518893
-0.0206456 0.915563 -0.498051
0.0245542 0.876662 -0.429285
0.0771851 0.908022 -0.443554
-0.0169527 0.826983 -0.339325
-0.0701221 0.855333 -0.43303
-0.0767269 0.854755 -0.42898
0.000645017 0.771899 -0.323947
-0.141888 0.896093 -0.434227
0.0240787 0.83993 -0.523215
-0.082744 0.78399 -0.34356
-0.183112 0.853159 -0.460336
-0.00263634 0.77202 -0.323767
-0.154403 0.859191 -0.495479
-0.116816 0.821063 -0.4887
-0.0921906 0.821737 -0.503251
-0.137755 0.898681 -0.444393
-0.141944 0.862458 -0.506599
-0.0584773 0.857575 -0.440676
0.0785129 0.907493 -0.433725
-0.0616058 0.856826 -0.437747
0.0714581 0.880934 -0.521447
-0.180106 0.836967 -0.417097
-0.125862 0.815142 -0.47273
-0.12975 0.875417 -0.369082
-0.128543 0.874908 -0.365576
-0.127357 0.874406 -0.361809
0.0104441 0.875587 -0.4515
-0.141565 0.877325 -0.392009
-0.143554 0.879394 -0.401272
-0.124542 0.815045 -0.47629
-0.0916946 0.85308 -0.412722
-0.0312358 0.88351 -0.559039
-0.0863701 0.869062 -0.307689
0.0653244 0.893958 -0.344295
-0.0634875 0.867684 -0.30864
-0.143628 0.879761 -0.401901
0.0776856 0.906658 -0.404269
0.138393 0.848758 -0.384466
-0.0596254 0.868272 -0.309111
0.0536613 0.910492 -0.475135
-0.0812085 0.870807 -0.543225
-0.0535608 0.86455 -0.304038
-0.126648 0.809413 -0.41941
-0.0563759 0.864232 -0.3038
-0.0369749 0.820374 -0.273537
0.0929841 0.778304 -0.356486
-0.04053 0.864636 -0.305445
0.0412268 0.836387 -0.366291
0.133777 0.858158 -0.418708
0.0409785 0.836485 -0.367821
-0.0381871 0.866081 -0.306319
-0.00718676 0.827115 -0.345081
-0.0161933 0.82691 -0.340378
0.0971213 0.876749 -0.489879
-0.0393143 0.86534 -0.30641
0.0537775 0.878465 -0.32359
-0.069188 0.865422 -0.303919
-0.0788727 0.782298 -0.343046
-0.0339082 0.870875 -0.311356
-0.0516969 0.820317 -0.281317
-0.0575451 0.820568 -0.284169
-0.0791771 0.868688 -0.307401
-0.119957 0.81875 -0.484183
-0.0659206 0.86481 -0.303964
-0.156446 0.833792 -0.38402
-0.0467528 0.863916 -0.304476
-0.068788 0.914018 -0.491507
-0.143833 0.880157 -0.402201
-0.10305 0.873121 -0.319055
0.13979 0.845322 -0.370632
0.0742411 0.908394 -0.449031
-0.136288 0.87854 -0.381023
0.0760822 0.905549 -0.392061
-0.0727747 0.855253 -0.431866
-0.128414 0.811959 -0.451783
-0.0653366 0.823995 -0.522628
-0.132881 0.825112 -0.351533
-0.0591338 0.779285 -0.329444
-0.0741267 0.828971 -0.391264
-0.12119 0.871401 -0.34583
-0.138621 0.829321 -0.359426
-0.00187341 0.827356 -0.347218
0.0185545 0.917749 -0.497942
0.0462346 0.912045 -0.484155
-0.0390602 0.823093 -0.339604
-0.0130719 0.771382 -0.323959
-0.0756011 0.819669 -0.297915
-0.180767 0.8534 -0.466063
-0.0491593 0.917016 -0.495308
-0.184142 0.839514 -0.42473
0.129735 0.833725 -0.330742
0.0780291 0.906885 -0.426138
-0.0508456 0.779872 -0.327859
-0.0518265 0.779704 -0.328286
-0.0154322 0.821329 -0.266596
-0.0542716 0.91596 -0.494028
-0.144507 0.886937 -0.417794
-0.14122 0.831054 -0.36333
0.0377528 0.839285 -0.516322
-0.0375526 0.819552 -0.337452
-0.0535337 0.778617 -0.329202
0.0060493 0.869038 -0.309025
-0.0116602 0.826888 -0.343194
-0.181971 0.853271 -0.464198
-0.0567805 0.824287 -0.525817
-0.112188 0.907935 -0.472081
-0.0457327 0.818876 -0.34301
-0.0436191 0.819051 -0.34083
-0.0796816 0.77904 -0.333655
0.107738 0.789498 -0.400311
-0.0189845 0.826769 -0.338572
0.0545172 0.878749 -0.324366
-0.0708611 0.780359 -0.331335
-0.167118 0.856144 -0.484365
-0.00179139 0.868988 -0.309298
0.0278948 0.830294 -0.361403
-0.171244 0.833226 -0.405392
-0.123993 0.872765 -0.352661
-0.0637296 0.822869 -0.366669
-0.0149487 0.91597 -0.498481
-0.182857 0.838756 -0.422517
-0.139519 0.830133 -0.36116
-0.022325 0.884871 -0.560528
0.108571 0.791689 -0.40787
-0.145524 0.889029 -0.422313
-0.0721688 0.865746 -0.304494
0.0738665 0.903636 -0.374296
0.0232372 0.774878 -0.325684
-0.0819832 0.779267 -0.334603
-0.129229 0.905151 -0.459357
-0.0806864 0.854581 -0.42567
-0.169214 0.833005 -0.40296
-0.080919 0.779187 -0.334097
-0.121916 0.808831 -0.399605
-0.118755 0.866039 -0.520543
-0.184967 0.840125 -0.426798
0.0506742 0.877279 -0.321199
-0.144993 0.887893 -0.419637
0.0317552 0.876649 -0.308057
-0.124813 0.873173 -0.354632
-0.127465 0.809468 -0.4251
-0.138162 0.879027 -0.384661
0.0437957 0.837315 -0.372195
-0.0109629 0.866937 -0.458438
-0.107587 0.817842 -0.327103
-0.104965 0.797763 -0.371206
0.0772503 0.906602 -0.401429
-0.124924 0.906508 -0.462599
-0.0672299 0.824236 -0.372978
0.0786642 0.776812 -0.333035
-0.123536 0.815396 -0.478289
-0.0815839 0.845581 -0.421266
-0.0957712 0.792449 -0.359003
-0.0837487 0.853861 -0.422201
-0.0807231 0.845738 -0.423779
-0.127861 0.81314 -0.461457
-0.0632762 0.820721 -0.288979
-0.108042 0.799324 -0.375762
-0.0729334 0.828073 -0.388913
-0.121687 0.871442 -0.347044
-0.111707 0.818221 -0.330387
-0.128681 0.810078 -0.44295
-0.0884808 0.85355 -0.416978
-0.0897682 0.789109 -0.351083
-0.143657 0.878759 -0.400269
-0.0799394 0.819156 -0.301726
-0.092912 0.852431 -0.40891
-0.102191 0.796489 -0.36705
-0.0466252 0.862403 -0.451346
0.00268117 0.836248 -0.529373
0.006557 0.83676 -0.528625
0.100479 0.812809 -0.46808
-0.0529789 0.779226 -0.328736
-0.0595494 0.863848 -0.30415
-0.0440803 0.879929 -0.557167
-0.0841489 0.822855 -0.502686
-0.0599487 0.823989 -0.524948
0.0695906 0.835822 -0.498507
-0.017838 0.866124 -0.458335
-0.0565716 0.778858 -0.329535
-0.0329061 0.913048 -0.496698
-0.0100592 0.833011 -0.53028
-0.0390383 0.822626 -0.339264
-0.0148689 0.866771 -0.458729
-0.0446202 0.863099 -0.452719
0.0136976 0.837986 -0.526638
-0.0775797 0.871592 -0.5457
-0.103712 0.86754 -0.528413
-0.0393198 0.822691 -0.339429
-0.0627312 0.864197 -0.304043
-0.0626336 0.823943 -0.523878
-0.143418 0.884084 -0.411141
-0.0469597 0.869543 -0.310763
-0.0253242 0.829316 -0.529815
0.0522287 0.877682 -0.322315
-0.143335 0.885529 -0.413857
-0.128659 0.810873 -0.447246
-0.11616 0.818518 -0.333033
-0.140983 0.877467 -0.391181
-0.0584142 0.821063 -0.357346
-0.134408 0.900358 -0.450462
-0.141886 0.894509 -0.432365
0.0482955 0.777062 -0.329452
-0.0896617 0.817749 -0.310093
0.0378988 0.914606 -0.491509
-0.104464 0.823684 -0.498999
-0.111106 0.801492 -0.380188
-0.0870705 0.853765 -0.418769
-0.181696 0.838142 -0.420601
-0.0770475 0.821749 -0.515884
0.0670016 0.776064 -0.335375
0.0966398 0.817583 -0.475806
0.0295973 0.870805 -0.419706
0.0267007 0.877245 -0.305031
0.0137015 0.918051 -0.498374
-0.145992 0.833262 -0.370462
-0.089575 0.821596 -0.502086
-0.00715179 0.771692 -0.323712
-0.0712338 0.822956 -0.519462
-0.0643722 0.778942 -0.329584
-0.0476058 0.818886 -0.34467
-0.121297 0.817559 -0.482959
-0.00868546 0.827069 -0.344344
-0.107164 0.824266 -0.497245
-0.0212895 0.829753 -0.529982
-0.118787 0.818832 -0.334419
-0.138802 0.898381 -0.441861
-0.186066 0.851647 -0.447895
-0.0822313 0.845184 -0.419704
-0.0773563 0.914846 -0.490622
-0.108935 0.866978 -0.525048
0.109704 0.870822 -0.472071
-0.084444 0.82028 -0.51134
-0.111333 0.822906 -0.494034
-0.0820687 0.820562 -0.512641
-0.17846 0.844601 -0.462328
0.0794538 0.90725 -0.418243
0.0228961 0.916981 -0.497385
0.13466 0.85624 -0.412456
0.0984008 0.815835 -0.472784
-0.127245 0.813726 -0.465552
-0.0674458 0.873666 -0.549751
-0.13194 0.875401 -0.375506
0.139621 0.846577 -0.375373
-0.0826728 0.822975 -0.504031
0.113846 0.86959 -0.466509
-0.154739 0.833878 -0.382082
0.00288064 0.872503 -0.456577
-0.0927995 0.821169 -0.506978
0.0235275 0.877588 -0.430455
0.00145826 0.871691 -0.457721
0.0353146 0.776641 -0.326856
-0.114063 0.873963 -0.332235
0.0585555 0.879726 -0.328595
-0.0974689 0.81744 -0.317127
0.105386 0.784275 -0.388677
0.0613692 0.881305 -0.331898
0.089003 0.777907 -0.348454
0.0469105 0.841237 -0.380472
-0.0385482 0.916378 -0.495783
-0.0641862 0.913864 -0.492063
0.099596 0.780222 -0.373008
-0.0111339 0.916345 -0.49874
-0.0781442 0.833774 -0.401686
-0.0353881 0.823077 -0.337972
-0.0926668 0.790669 -0.355036
0.0711809 0.775719 -0.337086
-0.132476 0.903383 -0.456212
0.0768665 0.906542 -0.42276
-0.079727 0.867311 -0.305872
-0.177279 0.854211 -0.471442
0.0692609 0.775719 -0.336292
0.00166017 0.917598 -0.498967
0.0597647 0.909813 -0.469007
0.0810504 0.777004 -0.335007
-0.130009 0.823416 -0.349512
0.0790691 0.776054 -0.33961
-0.110609 0.908158 -0.473364
0.0254183 0.872258 -0.311535
-0.040255 0.820121 -0.274649
0.136518 0.838071 -0.34836
0.0759667 0.908362 -0.445914
-0.028721 0.91429 -0.49395
0.0556037 0.878774 -0.32539
0.0773258 0.777275 -0.331974
-0.0269656 0.864633 -0.457294
-0.0678607 0.823798 -0.521476
0.00820298 0.827962 -0.351666
-0.135492 0.899793 -0.448433
-0.0883206 0.821868 -0.501987
-0.142729 0.882225 -0.408572
0.0761161 0.776097 -0.338662
-0.137109 0.878784 -0.382506
0.00925559 0.918135 -0.498673
0.0288932 0.820458 -0.262676
0.0411644 0.838354 -0.514248
0.0139311 0.820157 -0.262523
0.0833629 0.880539 -0.506625
0.0715169 0.900772 -0.362589
0.128004 0.839166 -0.327439
-0.0800084 0.823059 -0.505808
0.076574 0.906064 -0.419799
-0.0811605 0.86814 -0.30734
0.0622075 0.881558 -0.33316
0.0691906 0.897376 -0.353597
0.0777412 0.907939 -0.44204
0.0335897 0.82054 -0.263495
-0.0115125 0.771244 -0.323882
-0.163113 0.833147 -0.395087
-0.160957 0.857297 -0.489558
0.0323887 0.872641 -0.313123
0.0178313 0.838868 -0.525158
-0.0633608 0.77883 -0.329417
-0.137026 0.863512 -0.510134
0.0575189 0.910167 -0.471514
-0.04989 0.878169 -0.555658
0.0452614 0.839072 -0.374867
-0.0997764 0.822483 -0.501203
-0.184648 0.852588 -0.453644
0.0612248 0.881184 -0.331458
0.0265696 0.87547 -0.427398
0.139224 0.841979 -0.35934
0.0457921 0.839399 -0.375908
0.109818 0.82726 -0.28697
0.0187146 0.87099 -0.310509
0.0568184 0.878996 -0.326557
-0.0442606 0.917184 -0.495943
-0.0924168 0.852488 -0.409734
-0.00730375 0.916859 -0.498902
-0.152146 0.833682 -0.378136
-0.170092 0.855492 -0.481654
0.0317926 0.866666 -0.41308
0.0249352 0.877228 -0.304586
-0.0251484 0.870404 -0.311102
0.0042353 0.827727 -0.350326
0.0763347 0.906355 -0.395405
-0.023794 0.865187 -0.457896
-0.0292228 0.914307 -0.494286
0.0393344 0.837222 -0.362503
-0.0781593 0.779157 -0.333242
0.129158 0.863495 -0.438812
0.0577439 0.879286 -0.327592
0.0352169 0.873237 -0.313922
0.027257 0.873891 -0.425031
0.0910487 0.777985 -0.352385
-0.0324042 0.864061 -0.456293
0.0944215 0.819387 -0.479119
0.00565293 0.918029 -0.498908
0.056939 0.840213 -0.504473
0.0426066 0.83785 -0.512907
0.0751573 0.881111 -0.517353
0.0775494 0.880983 -0.51187
0.0722261 0.9013 -0.365374
0.0237659 0.829313 -0.359781
-0.074817 0.872235 -0.547473
0.0627018 0.882466 -0.333783
-0.0782037 0.82304 -0.507015
-0.0300313 0.914301 -0.49473
0.132459 0.859801 -0.42488
0.0473525 0.822021 -0.262717
0.0391525 0.820976 -0.262752
-0.137589 0.828483 -0.357771
0.0118647 0.773532 -0.324895
-0.052391 0.877677 -0.555454
0.0280055 0.876998 -0.305864
-0.088625 0.869417 -0.538053
-0.0060856 0.834036 -0.530171
0.0308906 0.868126 -0.414992
-0.0175904 0.885466 -0.561581
0.0486021 0.841958 -0.383732
-0.00150641 0.835211 -0.529875
0.0331909 0.860751 -0.405711
-0.016008 0.772076 -0.324103
-0.092404 0.853111 -0.411957
-0.0790998 0.854735 -0.427642
0.0756692 0.908395 -0.446642
-0.0858816 0.781301 -0.339011
-0.12673 0.814704 -0.469311
-0.116773 0.80575 -0.390689
-0.100994 0.817786 -0.321611
-0.101933 0.822843 -0.500204
-0.0300848 0.914513 -0.494408
-0.172457 0.855174 -0.479014
-0.0943156 0.868654 -0.535188
0.0305999 0.876698 -0.30735
0.00805201 0.820547 -0.263972
-0.0960153 0.868581 -0.534341
-0.00795326 0.86739 -0.458692
-0.113723 0.907547 -0.470677
0.116299 0.828053 -0.291701
-0.0704524 0.843183 -0.447555
0.00442365 0.820568 -0.263814
0.0185612 0.828725 -0.35711
0.113232 0.827575 -0.289107
-0.0756799 0.831056 -0.396744
0.106616 0.802856 -0.442174
0.0471315 0.840074 -0.378467
0.118334 0.82913 -0.313933
-0.133783 0.876864 -0.381937
0.0855775 0.777814 -0.34198
-0.0916193 0.912848 -0.485915
0.0765838 0.908203 -0.444762
-0.124448 0.809829 -0.408693
-0.084344 0.818601 -0.30482
-0.13224 0.902949 -0.4553
0.0785657 0.907339 -0.410618
-0.0545741 0.820015 -0.350953
-0.163276 0.856793 -0.487831
-0.109966 0.873544 -0.326632
-0.107843 0.87356 -0.324057
-0.0408121 0.819299 -0.339035
-0.060204 0.820677 -0.285961
0.0210666 0.83937 -0.524216
-0.118462 0.81989 -0.486357
-0.0910033 0.8218 -0.502403
-0.164247 0.833116 -0.396686
0.134779 0.836527 -0.342673
-0.12766 0.864618 -0.514135
0.0269427 0.874593 -0.426009
-0.0863015 0.781637 -0.340433
-0.128199 0.809919 -0.430497
-0.0312297 0.91356 -0.496719
0.0281015 0.775759 -0.326043
-0.058674 0.875935 -0.553918
-0.107472 0.908407 -0.475445
-0.167366 0.83294 -0.401189
-0.0715954 0.819934 -0.293794
0.0946028 0.778911 -0.360249
0.0316222 0.776423 -0.326394
0.0615474 0.881395 -0.332444
-0.112971 0.822771 -0.492611
-0.0530052 0.824157 -0.526711
-0.0293868 0.913753 -0.497004
-0.0765468 0.832209 -0.398951
0.019205 0.820097 -0.261686
-0.0886638 0.821032 -0.508833
0.0775698 0.77621 -0.339193
0.0139049 0.773663 -0.325063
-0.141914 0.877102 -0.392582
-0.179198 0.853677 -0.468255
0.0726366 0.908459 -0.451152
0.133191 0.835239 -0.336719
-0.0554569 0.778553 -0.329516
0.119097 0.8292 -0.318516
-0.0607004 0.821744 -0.360479
-0.0824771 0.854263 -0.423817
-0.075011 0.780726 -0.332261
-0.100701 0.872805 -0.316892
-0.123043 0.809196 -0.403387
-0.112058 0.873707 -0.329439
-0.0492723 0.780164 -0.32707
-0.145116 0.890099 -0.425053
-0.0861026 0.822967 -0.501506
-0.0036135 0.917069 -0.498835
-0.0593591 0.914317 -0.492865
-0.122664 0.872034 -0.349307
0.0477306 0.838262 -0.504769
-0.170208 0.833098 -0.404147
-0.0681571 0.780685 -0.330647
-0.0129184 0.832448 -0.530307
0.0794781 0.906881 -0.430374
0.0861467 0.82574 -0.486322
0.0829735 0.827772 -0.488534
-0.0700788 0.82603 -0.382583
0.107724 0.873547 -0.478452
-0.0393986 0.822743 -0.339491
-0.128699 0.810188 -0.436052
0.118342 0.828515 -0.294417
0.0762616 0.777619 -0.331283
-0.06341 0.856517 -0.436686
0.117899 0.828792 -0.316325
0.0269803 0.8406 -0.522028
0.105897 0.826865 -0.283594
-0.0673469 0.82041 -0.291424
-0.153091 0.833795 -0.379779
-0.116187 0.907385 -0.468891
-0.068418 0.824706 -0.376186
-0.0615178 0.779088 -0.329362
-0.182746 0.853233 -0.462268
-0.0447973 0.864278 -0.304729
0.105745 0.804697 -0.447075
-0.0852842 0.854422 -0.421184
-0.158776 0.833745 -0.388695
-0.0648235 0.823294 -0.368939
-0.0873016 0.822685 -0.501487
-0.121884 0.90706 -0.464934
-0.0798959 0.871065 -0.544068
0.0780916 0.906812 -0.40679
-0.0201793 0.826535 -0.338495
-0.141442 0.897227 -0.436394
-0.0680282 0.86716 -0.308061
0.0796769 0.776975 -0.333669
-0.122142 0.865453 -0.517748
0.00716958 0.772741 -0.324525
-0.020302 0.870128 -0.310752
-0.0615951 0.874967 -0.55219
0.0599922 0.880795 -0.330423
-0.0540568 0.778447 -0.329318
-0.0930734 0.85181 -0.407537
-0.0132134 0.885733 -0.562175
-0.0912483 0.82118 -0.507697
0.0323212 0.863237 -0.408998
0.0701227 0.898846 -0.356856
-0.0894441 0.869567 -0.309042
-0.18617 0.852116 -0.449255
-0.104314 0.817733 -0.324413
0.107055 0.787438 -0.395898
0.0731169 0.908344 -0.450578
0.0784404 0.907281 -0.429788
-0.00524617 0.827043 -0.346081
-0.0718854 0.780709 -0.331619
0.0788771 0.907501 -0.413449
0.0796064 0.9071 -0.420326
0.056573 0.776603 -0.331532
0.0685764 0.896821 -0.351718
-0.085584 0.87003 -0.540289
-0.0975896 0.822038 -0.502016
-0.0812414 0.823106 -0.505189
-0.0323951 0.827665 -0.529377
-0.119024 0.907269 -0.467025
0.0631349 0.838659 -0.501553
0.0796537 0.907274 -0.423127
-0.0626217 0.822408 -0.36383
-0.140416 0.877044 -0.39006
-0.122513 0.816276 -0.480609
-0.0173105 0.772379 -0.324191
-0.0843621 0.779897 -0.336172
-0.138179 0.880963 -0.396979
-0.0389396 0.823114 -0.339574
-0.0425255 0.864303 -0.304887
-0.132978 0.90203 -0.453767
-0.091658 0.868938 -0.536447
-0.142979 0.882123 -0.407195
-0.175818 0.834679 -0.410894
-0.101447 0.867961 -0.530449
-0.0872162 0.787579 -0.347277
0.0729 0.901764 -0.368209
-0.135354 0.878696 -0.386801
0.0423694 0.87515 -0.316714
-0.0891229 0.853484 -0.416265
-0.0174266 0.830819 -0.530187
0.0722966 0.909809 -0.454338
0.125609 0.864918 -0.44614
-0.133765 0.901123 -0.452057
-0.158293 0.833802 -0.387345
0.131689 0.861311 -0.430189
0.0390382 0.776765 -0.327524
-0.0726705 0.86762 -0.307742
-0.139868 0.862892 -0.508124
-0.183564 0.852853 -0.456498
-0.173587 0.833848 -0.407706
0.00207595 0.86906 -0.309131
-0.0935968 0.821185 -0.503388
-0.105765 0.867248 -0.526745
-0.0365297 0.826377 -0.52923
-0.14286 0.882454 -0.40955
-0.125059 0.864959 -0.515662
-0.0923152 0.852547 -0.410468
0.0285922 0.872246 -0.312086
0.0343902 0.857321 -0.400598
0.075466 0.904365 -0.385874
-0.13867 0.881389 -0.398765
-0.0992565 0.911016 -0.48113
0.0650464 0.82371 -0.263759
-0.0761005 0.866316 -0.305013
-0.0286785 0.828865 -0.529606
-0.144028 0.877554 -0.398293
-0.0415892 0.825547 -0.528596
-0.0514542 0.8195 -0.348254
-0.0947711 0.821269 -0.506097
-0.186799 0.842755 -0.442729
-0.0848028 0.785469 -0.344529
-0.0504658 0.864133 -0.304393
-0.137242 0.880073 -0.393302
-0.0248264 0.915158 -0.497533
-0.0421644 0.863677 -0.454089
0.0590126 0.776746 -0.332319
-0.0799508 0.854435 -0.426381
-0.128119 0.81223 -0.456379
0.0766064 0.906147 -0.414463
-0.136233 0.879467 -0.389437
0.102405 0.781636 -0.380131
-0.0647132 0.874155 -0.550581
-0.143075 0.892355 -0.429119
-0.0548481 0.868922 -0.309584
-0.0531969 0.778855 -0.329085
0.108683 0.792772 -0.411906
-0.0748232 0.82984 -0.393964
-0.165188 0.856466 -0.486164
-0.0346097 0.914475 -0.497054
-0.0495993 0.824541 -0.52739
0.0630851 0.909725 -0.465771
0.0542676 0.840675 -0.504995
0.0293505 0.876824 -0.306694
-0.0564894 0.820474 -0.353978
0.076766 0.906594 -0.398443
-0.0883137 0.818154 -0.308422
-0.0762606 0.868599 -0.307612
-0.129642 0.86451 -0.513525
0.0321737 0.865022 -0.411098
0.00157189 0.827769 -0.348781
0.103816 0.875506 -0.484113
-0.0864612 0.820533 -0.510151
-0.048233 0.780063 -0.326794
-0.0806515 0.783185 -0.343201
0.108249 0.790295 -0.403909
0.0243488 0.77508 -0.325739
-0.00137769 0.870572 -0.458539
-0.0951303 0.821229 -0.502714
0.123213 0.866514 -0.452347
-0.158646 0.858174 -0.492156
0.0395133 0.837394 -0.362684
0.12987 0.839608 -0.330333
0.0436931 0.836606 -0.371608
-0.0928448 0.851699 -0.407235
0.00953038 0.773201 -0.324717
0.0739028 0.775926 -0.337984
-0.11914 0.807267 -0.394533
-0.116197 0.866346 -0.521834
-0.12567 0.809698 -0.413907
-0.115146 0.822138 -0.490298
-0.109357 0.82341 -0.495681
-0.174017 0.85494 -0.476943
0.0697813 0.89822 -0.35561
-0.0382122 0.822701 -0.338774
0.0795734 0.907143 -0.428122
-0.0335629 0.82091 -0.334449
0.0598575 0.839709 -0.503269
-0.121774 0.819389 -0.336707
-0.13457 0.877766 -0.384502
-0.0101396 0.82699 -0.343754
0.0945698 0.825855 -0.275953
-0.0352801 0.820151 -0.335651
0.0757834 0.881687 -0.515394
-0.105385 0.909094 -0.476997
-0.139343 0.882541 -0.401392
-0.0851458 0.914221 -0.488527
-0.147329 0.833429 -0.3721
-0.0738256 0.822111 -0.517717
0.104688 0.806532 -0.452563
-0.0458364 0.825335 -0.527927
-0.0296653 0.864164 -0.456642
0.0492615 0.911367 -0.481276
-0.18327 0.853045 -0.458266
-0.111953 0.866804 -0.523879
-0.0768758 0.779691 -0.332879
-0.132872 0.875997 -0.378822
-0.143824 0.886216 -0.416013
0.0890112 0.824131 -0.483995
0.08426 0.777372 -0.339735
-0.0293667 0.87044 -0.311376
-0.169064 0.855739 -0.482576
