ply
format ascii 1.0
element vertex 1473
property float x
property float y
property float z
end_header
0.24923 0.933597 0.111453
0.075218 0.955748 -0.008211
0.119146 0.940198 0.0370196
0.144101 0.928601 0.0566434
0.154958 0.926887 0.0657526
0.217308 0.918636 0.0995135
0.237221 0.928146 0.146905
0.240612 0.915674 0.112205
0.113201 0.943166 0.0315806
0.224423 0.985457 0.103177
0.233573 0.926801 0.152618
0.251925 0.988739 0.130113
0.240628 0.974765 0.152055
0.221823 0.919488 0.102241
0.225573 0.918863 0.103508
0.234131 0.920736 0.107061
0.257998 0.927218 0.116374
0.257009 0.929615 0.115904
0.253026 1.01194 0.134808
0.244902 0.940276 0.109006
0.257047 0.930336 0.117157
0.247254 0.941103 0.126456
0.254413 0.925181 0.117399
0.254081 0.925307 0.118038
0.0814967 0.90656 0.386546
0.0836955 0.905578 0.384296
0.107643 0.905493 0.362839
0.0984699 0.906185 0.371613
0.0785193 0.907169 0.388849
0.0143937 0.926052 0.362061
0.0876444 0.905171 0.381357
0.0719058 0.904571 0.39656
0.0604152 0.893179 0.392763
0.0601554 0.89318 0.393383
0.0679319 0.909965 0.404592
0.0677109 0.909393 0.405027
0.062425 0.895788 0.390554
0.0619003 0.897732 0.381647
0.0690862 0.912893 0.404451
0.0693844 0.912803 0.404635
0.0574202 0.997603 0.399907
0.0572333 0.993033 0.399445
0.0562135 0.958397 0.399933
0.0933245 0.906012 0.376236
0.248276 0.9348 0.110919
0.0949361 0.905832 0.374389
0.0680873 0.91242 0.403015
0.057602 1.03103 0.401669
0.053962 0.918602 0.392125
0.0902053 0.906232 0.379559
0.0530136 0.929226 0.39154
0.0605083 0.91568 0.398658
0.0608722 0.914762 0.398929
0.0606308 0.915495 0.398813
0.068214 0.911979 0.403537
0.0685466 0.911974 0.404422
0.0583655 0.974814 0.398532
0.243259 0.930817 0.139403
0.239401 0.929619 0.143626
0.245749 0.938218 0.109543
0.196907 1.31414 0.291188
0.150974 0.908461 0.317634
0.0688764 1.12919 0.428236
0.0580427 0.978675 0.398526
0.0574906 1.00597 0.400379
0.13484 1.29504 0.371042
0.165873 1.30381 0.331979
0.233795 1.23205 0.267456
0.07147 1.22624 0.449045
0.0833634 1.27768 0.437158
0.0936678 1.28214 0.420129
0.0699272 0.920531 0.396831
0.0601489 0.926845 0.401012
0.0812709 1.27605 0.441725
0.0630852 0.897585 0.385542
0.0898538 1.26554 0.459327
0.0896686 1.26574 0.459464
0.254843 0.923784 0.115686
0.0712134 1.27172 0.459682
0.0708602 1.26463 0.459543
0.0701511 1.2717 0.457469
0.0713382 1.27161 0.455897
0.0602569 0.917134 0.396218
0.0871442 1.25704 0.465279
0.0720667 1.25897 0.460437
0.0903167 1.27185 0.457514
0.0923393 1.2727 0.456008
0.244845 0.915782 0.113049
0.0992673 1.28418 0.412857
0.153694 1.30062 0.349279
0.239375 0.915668 0.113511
0.0583627 0.971186 0.398661
0.234344 1.32459 0.245067
0.246424 0.941427 0.127686
0.247938 0.940165 0.125963
0.108955 1.28771 0.400652
0.260009 1.33657 0.201959
0.25702 1.33209 0.212476
0.251294 1.33045 0.22094
0.2547 1.32968 0.184475
0.254381 1.33792 0.19552
0.265874 1.20501 0.17348
0.255862 1.2736 0.245089
0.227336 0.977549 0.103783
0.256321 1.0548 0.144535
0.261952 1.13631 0.163523
0.0603108 1.05594 0.407196
0.252517 1.33701 0.202225
0.266843 1.24896 0.180498
0.242834 1.32799 0.231305
0.262559 1.33429 0.198521
0.0933504 0.935281 0.15044
0.0663008 1.10193 0.418818
0.251523 1.32488 0.179011
0.234199 1.30995 0.163594
0.252347 1.01781 0.135597
0.0660227 1.10706 0.420072
0.247448 1.25801 0.254063
0.252627 0.974814 0.129067
0.249418 0.926555 0.124433
0.243511 0.915761 0.112833
0.244652 0.921327 0.109381
0.236635 1.23739 0.264689
0.0680183 0.909108 0.405376
0.0865874 1.26844 0.461537
0.066696 1.09749 0.417605
0.231661 1.01397 0.183953
0.20519 1.02456 0.097827
0.223134 1.21129 0.2731
0.0865893 0.90493 0.381838
0.0810289 1.34387 0.0682175
0.0640044 1.34555 0.0570869
0.0513345 1.34888 0.0463317
0.0550711 1.34778 0.0504288
-0.00774789 1.18147 -0.028206
0.151869 1.34422 0.115298
0.231352 1.30473 0.161659
0.204442 1.31536 0.279638
0.232396 0.916165 0.11758
0.262584 1.31002 0.187523
0.252606 1.2679 0.247596
0.264503 1.27087 0.182898
0.265786 1.19029 0.171525
0.219852 1.27965 0.15437
0.207969 1.33676 0.195143
0.0282274 1.34909 0.0355884
0.0148194 1.35055 0.0253899
-0.00418964 1.34535 0.0258151
0.00363914 1.34918 0.0164371
0.00308715 1.34919 0.0172493
0.00358456 1.34903 0.0172878
0.248353 1.3238 0.175499
0.23002 1.34199 0.179805
0.000332516 1.35137 0.0139191
0.089424 1.26629 0.460689
0.259347 1.33504 0.202715
0.00449945 1.34602 0.0195646
0.00501563 1.34473 0.0189104
-0.00886485 1.17611 -0.0299793
-0.00250352 1.34604 0.014495
0.253751 0.999148 0.132697
0.0864352 1.34318 0.0723621
0.0722885 1.34398 0.0642025
0.0910664 1.34214 0.0768673
0.0423706 1.28767 0.0311565
0.211497 1.01028 0.100454
-0.0035603 1.3455 0.017382
0.0681801 0.910542 0.404319
0.261086 1.12066 0.159353
0.149253 0.927302 0.060908
0.0864125 1.07047 -0.0145542
0.0574927 1.01049 0.400479
0.10823 1.20405 0.0527436
0.159777 0.925464 0.0691512
0.0569144 1.27068 0.0360196
-0.0157127 1.29109 0.0603908
0.0682235 0.911503 0.403822
0.0864784 1.2582 0.466514
-0.00789408 1.10889 -0.0512268
-0.137006 1.33313 0.170848
-0.0170703 1.24444 -0.0122713
-0.0175288 1.2541 -0.0102087
-0.0167662 1.2498 -0.0108993
0.181747 1.34161 0.144562
0.251949 0.925663 0.122436
0.0160576 1.33661 0.0252999
-0.00515808 1.33798 0.0313792
-0.00361829 1.34538 0.0182162
-0.00407314 1.34555 0.0148304
-0.00603433 1.34489 0.0155664
0.265336 1.17651 0.168973
-0.00912641 1.33203 0.00962699
-0.0040943 1.34723 0.0229246
0.191484 1.33929 0.15539
0.123413 1.1804 0.0596617
0.119156 1.18862 0.0574213
0.073066 0.905885 0.392568
-0.204823 1.34387 0.230122
-0.203272 1.34411 0.231446
0.257833 1.33626 0.200124
-0.203838 1.33001 0.238516
-0.200528 1.32689 0.22914
-0.202726 1.3302 0.23725
-0.191198 1.33296 0.227982
-0.0559715 1.33231 0.175001
-0.046375 1.33199 0.172409
-0.00934542 1.32497 0.04062
0.203075 1.1658 0.292365
0.185481 1.12833 0.293856
-0.0249901 1.25737 0.0728447
-0.0376279 1.33178 0.171814
-0.0207002 1.27249 0.069291
-0.0146382 1.30352 0.054385
-0.167006 1.33292 0.203189
-0.109666 1.33571 0.143518
-0.0141414 1.29778 0.0568331
0.0387244 1.29365 0.0302109
-0.206358 1.19222 0.228832
-0.170504 1.33353 0.206767
-0.173024 1.33388 0.210329
-0.203915 1.32985 0.238932
-0.201844 1.33001 0.237867
-0.195306 1.33267 0.233525
-0.203374 1.33018 0.237274
-0.203457 1.33024 0.237205
-0.203337 1.32752 0.229323
-0.198553 1.33925 0.242267
-0.198501 1.33941 0.241735
-0.0169461 1.2852 0.0636361
0.0146592 1.33915 0.0245981
-0.208756 1.23185 0.233655
-0.211596 1.26978 0.234124
-0.089505 1.3303 0.18646
-0.0971235 1.32936 0.189581
0.255415 0.923665 0.113566
-0.208352 1.13516 0.217638
0.100735 0.906364 0.369426
0.0886346 0.905824 0.380927
0.00510019 1.34501 0.0194195
-0.00361197 1.34544 0.0220108
0.00258373 1.34915 0.0168361
0.000125021 1.34626 0.0181862
0.186108 1.31116 0.305488
0.263505 1.26452 0.180668
0.214302 1.06671 0.232063
-0.00915563 1.29088 0.397741
-0.00307557 1.28895 0.404242
0.0902392 1.26352 0.459041
0.0964393 1.24954 0.445408
0.0787343 1.26211 0.463583
0.118389 1.29028 0.389324
0.124207 1.29157 0.382909
0.00253403 1.28754 0.409972
-0.199293 1.33743 0.24408
-0.201933 1.33819 0.243571
-0.201997 1.33838 0.242868
0.066662 0.914455 0.401209
-0.0787306 1.33056 0.184443
-0.186639 1.31449 0.24415
0.0628327 0.897706 0.383923
-0.198994 1.32657 0.234195
-0.19884 1.32513 0.227951
-0.118132 1.32749 0.196221
-0.0181079 1.33149 0.170448
-0.164495 1.2685 0.156543
-0.000143494 1.00891 0.366468
-0.175023 1.32374 0.232363
-0.0277661 1.24859 0.0742546
-0.139039 1.32403 0.209834
-0.179372 1.29528 0.188537
0.0665394 1.11341 0.422092
0.0394392 1.34806 0.0428135
-0.014564 1.31703 0.04916
0.224912 1.34128 0.17751
-0.194969 1.32197 0.237157
-0.192984 1.333 0.22951
0.229712 0.919269 0.105246
-0.156652 1.3226 0.220475
-0.100779 1.31871 0.318302
0.0688863 1.15124 0.432739
-0.207159 1.32469 0.237717
0.0640237 0.960419 -0.0214607
-0.204378 1.32989 0.237606
-0.203578 1.32996 0.237567
-0.207301 1.32543 0.237648
0.0215943 1.28564 0.422641
0.112996 1.28914 0.395112
0.107939 1.2364 0.422951
0.186531 1.3402 0.150724
0.0356303 1.29998 0.0297414
-0.185325 1.30544 0.243537
0.11702 1.34248 0.0891239
-0.185606 1.31029 0.244397
-0.203005 0.98661 0.181661
-0.184219 0.975126 0.158515
0.0894432 1.26598 0.459802
-0.191754 1.02148 0.171357
0.0712365 1.22059 0.447256
-0.170556 1.05776 0.156129
-0.201197 0.975764 0.189913
-0.197906 1.3242 0.234707
-0.200697 0.974324 0.188812
-0.201831 0.99 0.182207
-0.200322 0.98537 0.189733
0.0676389 1.25906 0.453586
0.169426 1.18906 0.0855287
0.109892 0.905377 0.360716
0.25831 1.09045 0.150717
-0.200878 0.974622 0.188498
0.0693597 1.18567 0.439199
0.15786 1.115 0.0736114
0.0723077 1.24403 0.456052
-0.0325488 1.29676 0.379461
0.123666 0.97603 0.362215
0.17889 1.09663 0.31607
0.104825 1.24117 0.427508
0.0603961 1.26483 0.438397
0.103423 1.24426 0.430588
0.248885 0.926914 0.125784
-0.194866 1.01215 0.175514
-0.188615 0.984304 0.191736
-0.189383 0.984892 0.191338
-0.179385 0.982408 0.197173
-0.196334 1.00765 0.177204
-0.198093 1.00334 0.178598
-0.201638 0.97663 0.187487
-0.0999102 0.964894 0.267033
0.0648099 1.25794 0.452509
-0.0895121 0.963274 0.276628
-0.166572 0.978222 0.210673
-0.162846 0.977072 0.213652
-0.137148 0.971562 0.234104
-0.145976 0.973024 0.226743
-0.128009 0.968993 0.242872
-0.111756 0.966358 0.257193
-0.00718294 1.1027 -0.0528701
-0.118115 0.96708 0.252273
-0.0155227 0.937072 0.335269
0.107518 0.944871 0.0260641
0.0413256 0.906685 0.277925
0.0642385 0.914878 0.40073
0.00771103 0.996833 0.369403
0.067794 0.909166 0.405193
0.0659592 0.913053 0.400613
0.0582074 1.02119 0.401355
0.0700389 0.913428 0.398854
-0.00775048 1.34441 0.016039
0.0775408 0.907093 0.389303
0.0566063 0.961573 0.399745
0.257532 0.927915 0.11525
-0.00443101 1.33923 0.029928
0.0705306 1.19788 0.441972
0.0557752 0.955186 0.400081
0.054903 0.952359 0.399711
0.060998 0.907524 0.398282
0.256036 0.918159 0.108485
0.0668861 0.912216 0.401577
0.00289106 1.35157 0.023169
0.0668183 0.913689 0.401508
0.067221 0.91289 0.401924
0.247447 0.935911 0.110357
0.0535815 0.928306 0.394205
0.0767218 0.906931 0.389646
0.0568111 0.91766 0.394163
0.258898 0.919433 0.105636
-0.0117718 0.935395 0.338406
0.0636886 0.914442 0.399688
0.0684194 1.25672 0.0400631
0.147807 1.01369 0.345901
0.253543 1.32919 0.183273
-0.091639 1.11124 0.0172487
-0.0944122 1.11972 0.0236768
-0.150948 1.24187 0.265677
-0.147343 1.23343 0.267448
-0.209105 1.24073 0.234374
-0.192498 0.973775 0.172289
-0.193597 1.01657 0.173496
0.0597131 0.929137 0.401115
-0.209681 1.2474 0.234071
0.0689974 1.13433 0.429572
-0.190023 0.985251 0.191006
0.14374 0.92716 0.141532
0.235711 0.998541 0.168951
-0.154401 1.33195 0.188791
0.210117 1.07622 0.242072
0.190051 1.1208 0.285447
-0.206122 1.20144 0.230232
-0.199913 1.32963 0.233834
-0.143742 1.22517 0.269205
-0.195346 0.988964 0.190463
-0.0371719 1.29807 0.37559
0.00420987 1.34628 0.0196968
0.213702 1.19128 0.281658
0.0895215 1.26646 0.461421
0.19821 1.24015 0.126264
0.0480921 0.901819 0.320545
0.191465 1.31289 0.298339
0.0632477 1.07843 0.41106
0.0797169 0.907199 0.388189
0.259151 1.09713 0.152356
0.0246477 1.2852 0.423212
0.0571054 1.03621 0.402125
-0.18854 1.02678 0.168535
-0.199418 0.972959 0.187114
-0.203956 0.985639 0.182003
-0.20406 1.3411 0.231076
-0.201753 0.976283 0.187357
0.255008 1.04929 0.14326
-0.206995 1.18288 0.22746
-0.202592 0.977956 0.185262
-0.205146 0.980161 0.184419
-0.205338 0.979892 0.184112
0.237549 0.987681 0.162555
-0.193649 0.986712 0.19007
-0.194405 0.988522 0.190413
0.260443 1.33622 0.202675
-0.193945 0.987903 0.190486
0.265921 1.29394 0.235285
-0.175249 0.975314 0.147769
-0.177865 0.975203 0.151621
-0.201801 0.976653 0.187303
0.022506 0.979555 0.376671
0.011597 0.990089 0.370653
-0.123615 1.11441 0.1246
-0.200679 1.33926 0.241581
-0.127676 1.10746 0.127697
-0.0763097 0.975481 -0.0140021
-0.0315638 1.01044 -0.0579386
0.0906817 1.27227 0.457639
-0.126345 0.960049 0.171609
-0.159778 1.06907 0.149449
0.0312279 0.965557 0.380737
-0.128577 0.97278 0.0763326
-0.0233833 0.976545 -0.0572001
-0.109031 0.955699 0.167586
8.4579e-05 0.975715 -0.0724153
-0.0808684 0.974405 -0.00685501
-0.11733 0.957726 0.169758
0.257148 0.926469 0.11551
-0.169867 0.975546 0.139704
-0.0169914 1.02984 0.358023
-0.0450715 1.30118 0.367807
0.00398159 0.977247 -0.0820543
0.0320789 0.943097 0.0604727
-0.0414784 1.29975 0.371113
0.139038 1.15367 0.0658978
-0.200263 0.972516 0.185616
-0.182489 1.30209 0.197263
0.0546058 0.962116 -0.0341432
-0.0153492 0.985631 -0.0707146
-0.0157957 0.986336 -0.0703047
-0.0045823 1.09575 -0.0543465
-0.00585073 1.33537 0.0338277
-0.00490316 1.34067 0.0124568
0.247744 0.922639 0.110325
0.0539705 0.930068 0.394146
0.0717829 0.90643 0.394997
0.256665 0.918271 0.107856
0.257882 0.919364 0.10675
-0.160195 1.25609 0.25974
-0.0286725 0.975613 -0.0543158
0.254004 0.919982 0.109919
0.172323 1.19432 0.089099
-0.109667 0.971925 0.0374808
0.0243826 0.949909 -0.0138762
0.127746 1.17264 0.0618678
0.169425 1.30531 0.326075
0.165952 1.09653 0.0776701
-0.142121 1.09011 0.138418
0.106463 0.933341 0.148863
0.193664 1.04858 0.0926732
0.251887 0.984919 0.129736
0.187362 0.91684 0.0849091
0.0362203 1.28205 0.427248
-0.0696699 1.33108 0.181888
0.098636 1.24917 0.441102
-0.194071 0.973734 0.177733
0.257383 0.918236 0.107074
0.0334437 0.922018 0.189223
-0.193193 0.973764 0.175293
0.0343825 0.932587 0.125374
-0.10776 1.16612 0.300818
0.020474 0.956617 -0.048697
0.00110708 0.975913 -0.0748461
0.0860977 0.952344 0.00332027
0.249247 0.936304 0.124208
0.0190107 0.974914 -0.0754643
0.0613565 0.915109 0.399033
-0.150365 0.974057 0.22318
0.0760334 1.33559 0.182198
0.0207849 0.973669 -0.0741631
0.255251 1.32923 0.186655
0.0261568 0.994383 -0.0737393
-0.0516585 0.975962 -0.0401576
0.241959 0.915756 0.11224
-0.0335674 1.01516 -0.0555471
0.0275977 0.948297 0.00696568
0.249701 0.932531 0.11184
0.0293444 0.947408 0.0170316
0.249553 0.936913 0.124313
0.00704275 0.974809 -0.0726279
0.026639 0.971675 -0.0687437
0.0607995 0.908541 0.398225
0.0302712 0.943172 0.0480611
-0.115333 0.971953 0.0474523
0.0714259 0.957562 -0.0124222
0.0828 0.953363 -0.000286154
0.00517918 0.976913 -0.0816817
0.0172946 0.955673 -0.0520494
-0.0305922 0.945138 0.322591
0.0243709 0.949021 -0.00911181
0.00600353 0.986916 -0.0826901
0.244965 0.948398 0.134686
0.00848931 0.983228 -0.0829452
0.0601949 1.03894 -0.0418698
0.252798 0.964564 0.127024
-0.200537 0.979785 0.187508
0.0131994 0.978508 -0.0794228
0.0034816 0.974409 -0.0759208
0.0570271 0.964965 0.39943
-0.185107 0.97275 0.188036
0.00384437 0.974303 -0.0753778
0.00411523 1.04834 -0.068866
0.0575882 0.987126 0.39903
0.00665425 0.976774 -0.0757622
0.03214 1.00216 -0.0694345
0.0609364 0.960644 -0.025588
0.252146 1.02427 0.136802
0.246889 1.32909 0.225812
0.0050589 1.0228 -0.0756736
0.00811991 1.00669 -0.0801174
0.118574 0.970833 0.364998
0.0578026 0.961244 -0.0298791
0.0481426 0.936529 0.387921
-0.013984 0.97734 -0.0629484
0.171137 1.08802 0.0802929
0.0228343 0.989884 -0.0761321
0.0690985 0.912512 0.404591
0.25731 1.08245 0.148711
0.0912629 1.07425 -0.00838238
0.0123868 0.976776 -0.0795405
0.143346 1.00405 0.349169
0.000392836 1.07012 -0.0627625
0.239235 1.32627 0.238153
0.0597517 0.898039 0.374734
0.237607 0.915772 0.114844
0.234628 0.927375 0.150847
0.0582998 1.01576 0.401235
-0.174612 1.05152 0.158675
-0.0447381 1.21368 0.0805619
0.0314916 0.918975 0.37747
-0.10156 1.33709 0.136514
0.238127 0.928903 0.145313
-0.0770656 0.961557 0.286006
0.167959 1.06671 0.328245
0.201706 0.918762 0.126361
0.220876 0.916755 0.121086
-0.202891 1.32993 0.238197
0.0510819 0.935052 0.390178
0.245802 0.941873 0.129916
0.254883 0.918128 0.109355
-0.162816 1.33221 0.1993
0.241384 0.930236 0.141428
0.0903247 1.27148 0.459259
-0.00797069 0.976715 -0.0653597
0.261064 1.28387 0.23925
0.24904 0.937561 0.125298
-0.118979 0.972476 0.058037
0.249487 0.935953 0.124559
0.208456 1.0175 0.0995519
-0.0136147 1.0241 0.359198
0.257499 1.33624 0.200006
0.02952 1.31103 0.027112
0.162403 1.17522 0.0773798
0.183715 1.21308 0.105354
0.259011 1.3346 0.202085
0.259132 1.33489 0.202767
0.253808 0.924414 0.11889
0.161949 1.10559 0.075495
0.23031 1.02156 0.190515
0.00146267 0.976451 -0.0776908
0.198146 1.04006 0.0946948
0.00528395 0.97453 -0.0738678
0.252709 0.969676 0.128112
0.0289639 0.970781 0.379929
-0.0397243 1.22267 0.0786362
0.131427 1.12785 0.0377574
0.165944 1.18176 0.0815587
0.0328159 0.969481 -0.0625516
0.0357741 1.00515 -0.0656579
0.257636 0.926902 0.115948
0.257375 1.07544 0.147759
0.00743209 0.982504 -0.0832658
-0.00345393 1.34574 0.0159592
0.0635238 0.915247 0.399432
0.0636604 0.915736 0.399651
-0.00822755 1.18547 -0.0271644
0.249952 0.926304 0.12406
0.250411 0.926435 0.12387
0.130232 0.982864 0.359228
0.251559 0.92601 0.122912
0.0364934 0.918703 0.380558
0.00788953 1.00358 -0.080904
0.242778 1.24732 0.258972
0.0548982 0.946161 0.399917
-0.0158525 1.30946 0.0533211
-0.139383 1.21772 0.272241
0.0754113 0.907073 0.390908
0.229824 0.916253 0.117957
-0.110849 1.3279 0.193987
0.0741863 0.906865 0.392769
-0.0158699 0.986769 -0.0701846
0.127366 1.1219 0.0329058
0.140663 1.1982 0.367251
0.0325047 1.30561 0.0285091
0.220197 0.993663 0.102276
0.145249 1.19211 0.35835
-0.0182186 1.2794 0.0667471
0.139373 1.29687 0.364782
0.262212 1.33503 0.197635
0.144819 1.29827 0.359152
0.0676088 0.917781 0.398466
-0.0289916 1.33165 0.170957
-0.0554968 1.30454 0.358969
0.11145 1.2331 0.417322
-0.195341 0.973905 0.178886
0.109696 1.23465 0.420235
0.264829 1.28765 0.186368
0.254324 0.934329 0.117166
0.0716857 1.20941 0.445085
0.0562084 0.899354 0.354444
0.0901882 0.937217 0.384443
0.0553273 1.03271 -0.0473277
0.0835835 0.93166 0.388722
0.0869015 0.93429 0.386669
-0.0107673 1.32999 0.00882526
0.0522207 0.933933 0.3915
-0.175851 0.981746 0.199887
0.259652 1.33648 0.201595
0.0519835 1.02753 -0.0504145
-0.159298 0.973992 0.128068
0.100874 1.34214 0.0811955
-0.172841 0.975498 0.143816
-0.177599 0.982252 0.198406
0.0751136 0.92549 0.393504
0.0444135 0.943707 0.387285
0.0528663 0.932607 0.391945
0.0632569 0.895712 0.392297
0.0686964 1.14405 0.431436
-0.0629139 0.958314 0.296104
0.0630235 0.895514 0.392981
0.0713268 0.905344 0.396305
-0.00695221 0.932857 0.342662
-0.000720784 0.930466 0.347851
-0.0461968 1.03796 -0.041231
0.0421903 0.946838 0.386375
0.062933 0.915009 0.398384
0.162097 1.05354 0.331699
0.0606227 0.910331 0.398399
0.252124 1.03043 0.138053
0.252512 0.960864 0.125795
-0.083761 0.962458 0.281236
0.150157 1.18463 0.350018
0.15434 1.17745 0.345147
0.261608 1.33334 0.196497
0.137462 1.3435 0.103989
0.0161536 0.977771 -0.0775284
-0.154114 0.973447 0.118993
0.143188 1.34364 0.109545
-0.044732 1.06577 0.344247
0.260133 1.10462 0.154429
0.0303531 0.94627 0.0312162
0.101778 1.24675 0.43463
0.0673921 0.912312 0.402059
0.0521736 1.3341 0.180492
0.237904 0.955436 0.106348
-0.211041 1.26175 0.23401
0.129842 1.21296 0.387726
0.161364 1.30241 0.337512
0.0141009 0.979312 -0.0789892
0.258891 0.921169 0.107128
0.1263 1.21754 0.395501
-0.198955 0.999487 0.179394
0.122812 1.22028 0.400388
0.0974861 1.2488 0.442927
0.0899213 1.26237 0.45957
0.0286459 1.28307 0.424858
0.206229 1.1746 0.288816
0.189043 1.22272 0.112828
0.186289 1.21772 0.108899
0.23018 1.2256 0.269195
-0.124888 1.33354 0.158904
0.0895319 1.26209 0.46043
0.0718046 0.906389 0.396298
0.0932927 0.940608 0.382304
0.0116838 0.958268 -0.0613347
0.0245359 1.33362 0.176434
-0.200582 0.976304 0.189137
0.0707726 1.2596 0.456415
0.0492181 0.9196 0.388292
-0.171234 0.980513 0.205152
0.203113 1.2471 0.133201
0.258303 0.922699 0.108196
-0.0609447 1.30642 0.353448
-0.200574 1.33836 0.243811
0.265195 1.33305 0.201312
0.24321 1.31893 0.172619
0.057452 1.0021 0.400176
0.0767603 1.26091 0.46155
0.224074 1.03989 0.206444
0.222067 1.28311 0.156938
0.0926698 1.2553 0.456657
0.00260845 1.05514 -0.0669689
0.00350256 1.34927 0.0165782
0.263324 1.3343 0.202015
0.256286 1.33737 0.197607
0.251522 0.92636 0.123007
0.181246 1.20884 0.101474
-0.0722537 1.0726 -0.0123829
0.237316 1.34101 0.186038
0.125846 0.937274 0.0428778
0.156481 1.30139 0.343655
0.2451 1.32115 0.173243
0.246869 1.32302 0.174162
0.257624 0.919544 0.107536
0.0724134 0.906057 0.393669
0.0180696 0.989979 -0.0788639
0.0678829 0.914782 0.399186
0.240515 1.34027 0.188207
0.262907 1.29634 0.186072
0.0964944 1.22033 0.0487532
0.111614 0.962482 0.370071
-0.0505517 1.204 0.0827931
0.00373222 1.00301 0.367905
-0.201237 0.97453 0.188795
-0.00485175 1.01426 0.363836
0.0847341 1.23491 0.0447309
0.264769 1.28932 0.237705
-0.0577252 1.19354 0.0855545
0.241386 1.31688 0.171207
-0.0256466 0.942194 0.326638
0.0635164 1.25987 0.445471
0.0272 1.28455 0.423264
0.0590708 0.935291 0.401458
0.0725722 1.23915 0.454551
0.250006 1.32417 0.177683
0.0209407 0.923687 0.368423
0.26028 1.31958 0.187124
0.224231 1.28721 0.158899
0.1771 1.33731 0.189647
-0.014623 0.98655 -0.0709614
0.0298776 0.970913 -0.0654622
0.16507 1.34386 0.127661
0.22848 1.29863 0.160207
0.250789 0.927296 0.113601
0.207739 1.33923 0.167656
0.252775 1.32401 0.180912
-0.0405033 0.974872 -0.0467542
-0.000849092 1.07734 -0.0604711
0.199475 1.33761 0.194059
0.0821904 1.06628 -0.019603
-0.029095 1.04805 0.353144
0.00318434 0.978287 -0.0820713
0.0709352 1.16413 0.436968
0.0331688 0.935476 0.108803
0.0123318 1.28569 0.417856
0.226544 1.21808 0.27086
0.0617909 0.922734 0.401014
0.249799 1.32456 0.177011
0.215299 1.34048 0.170295
0.0727876 0.905853 0.392842
0.153224 1.33749 0.188058
0.202271 1.09579 0.261276
0.0384753 0.913372 0.238785
0.253456 0.92856 0.124663
0.259508 1.32749 0.194801
0.0219468 0.95726 -0.046978
0.194255 1.11201 0.276955
0.239262 0.979546 0.156612
0.0353335 0.96802 -0.0597849
0.0330975 0.943817 0.0661315
0.0378813 0.966968 -0.0568199
0.250951 0.928931 0.114213
-0.0128652 1.3192 0.0466176
0.0609679 0.909935 0.399455
0.0689002 0.913802 0.398918
0.249595 1.26296 0.250924
0.0311211 0.942932 0.0548651
0.0649973 0.91301 0.400195
-0.00398977 1.34615 0.0226551
-0.16946 0.979766 0.20779
0.063481 0.91483 0.39941
0.0578456 1.02669 0.401381
0.0418381 1.01155 -0.0594253
-0.146108 1.08526 0.141273
0.0131005 0.977649 -0.0794523
-0.13844 0.97227 0.0956699
0.250244 1.33676 0.201978
0.252229 1.33821 0.194595
0.201734 1.03213 0.0961023
0.17824 0.920179 0.081614
-0.134602 0.962408 0.175402
0.0704159 1.26113 0.451499
-0.00720943 1.12566 -0.0456162
0.11463 1.19598 0.0552731
0.268398 1.23439 0.17907
0.148535 1.1346 0.0692586
0.119863 1.1094 0.0250349
0.0013281 1.35294 0.0141005
0.118985 1.22417 0.404664
0.0209069 0.987433 -0.0776743
0.248776 0.926758 0.12651
0.0389171 0.90655 0.270943
-0.0367603 1.02432 -0.0489948
-0.0766622 1.07665 -0.00810746
0.00500991 1.34663 0.0205473
0.00412659 0.9288 0.352112
0.00475962 0.976853 -0.0812109
-0.202517 1.34062 0.231787
-0.19981 0.973147 0.187171
0.00488143 0.978683 -0.0822684
-0.149884 1.08046 0.144342
0.0745121 1.24972 0.0418434
-0.0224154 0.998279 -0.0663765
0.155792 1.03328 0.338901
-0.00379174 1.34302 0.0124559
0.00803188 1.28655 0.414541
-0.166268 0.975097 0.135507
0.0458136 0.906646 0.292053
0.20296 1.33901 0.164198
-0.0946358 0.963869 0.271898
-0.0646235 1.0641 -0.0207362
-0.208604 1.15808 0.223564
0.135431 1.13357 0.0428849
0.228986 1.3231 0.2519
0.143875 1.14374 0.0671539
-0.00627442 1.33707 0.011424
0.0452642 1.34861 0.0438831
-0.0414294 0.950422 0.313843
0.0718452 1.20379 0.444085
0.0384972 1.33383 0.17832
-0.0109898 1.34393 0.016585
-0.0728846 0.950464 0.160046
0.0216711 0.988413 -0.0771394
0.173964 0.921213 0.0791015
0.00749265 0.990998 -0.0817563
0.146388 0.908097 0.322869
-0.0925482 0.953499 0.163821
0.265393 1.27899 0.185262
0.048648 1.02215 -0.053438
-0.133466 0.972681 0.0861629
0.0340368 0.934668 0.115587
-0.00672075 1.11781 -0.0479488
0.253234 1.32426 0.181453
0.158994 1.16911 0.0732414
-0.152134 1.24603 0.133208
-0.0502449 1.30292 0.363593
-0.0440621 1.03372 -0.0428553
0.00475162 0.974626 -0.0744973
0.189288 1.33773 0.192174
0.0698896 1.1802 0.438912
0.226374 1.29374 0.159269
0.023005 0.953056 -0.0331716
0.250048 0.92647 0.124052
-0.0631427 1.33199 0.178502
0.176342 1.34268 0.138684
0.219744 1.04938 0.216369
-0.0943735 1.33827 0.130091
-0.0376273 1.05752 0.348285
-0.0413019 1.06158 0.34622
-0.0830828 0.952145 0.162475
0.158136 1.04276 0.335182
0.234633 0.961859 0.105131
0.0540289 0.899511 0.345002
0.0582664 1.04266 0.403885
0.0625294 1.26133 0.441915
0.0594783 1.0492 0.405711
-0.0337121 1.05344 0.350622
0.0176309 0.989391 -0.0790681
-0.0129341 1.32688 0.00733811
0.0516523 0.963882 -0.0383487
-0.0201749 0.939758 0.331205
0.0592488 0.932391 0.401118
0.0857102 1.27912 0.432223
-0.131999 1.10166 0.131702
0.103013 0.906147 0.367149
0.0249652 0.948796 -0.0052716
0.197808 1.3392 0.159426
-0.146691 1.23576 0.121979
-0.0544703 0.947355 0.156933
0.267568 1.30342 0.230057
-0.0987504 1.12993 0.0319265
0.0279217 0.996873 -0.0725752
0.0404155 0.966988 -0.0531345
0.253031 0.925486 0.121
0.150376 1.29961 0.354042
-0.0878797 1.13442 0.318123
-0.150791 1.32289 0.216275
0.0618631 0.924199 0.401409
0.0673878 0.916156 0.399033
0.255903 0.930736 0.116705
-0.210493 1.25422 0.233761
0.231551 1.33632 0.198838
0.129623 1.29316 0.37683
0.262632 1.30368 0.186566
0.00683068 0.98137 -0.0833724
0.236023 0.927589 0.148792
0.00104991 1.35583 0.0138632
0.2508 1.32461 0.17837
-0.069338 0.959757 0.291327
0.244378 1.33653 0.2001
0.0670946 0.93832 0.152659
-0.00914585 1.34403 0.0163381
0.246524 0.931215 0.136266
0.0899266 1.26499 0.459531
-0.118831 1.12233 0.121971
0.224601 1.33648 0.196958
0.209972 1.1837 0.285379
0.0709999 1.05129 -0.0305327
-0.011136 1.14895 -0.0395166
-0.117555 1.33443 0.151614
-0.169108 1.2669 0.253822
-0.201892 0.988383 0.18196
-0.203063 0.985653 0.181419
0.0339707 0.916388 0.214423
0.070722 1.25907 0.458553
0.252148 1.03699 0.139431
-0.210964 1.28203 0.234544
0.217743 1.27628 0.152012
-0.201147 0.97774 0.188013
0.0072585 1.01613 -0.0773525
0.111692 1.09853 0.0156704
-0.0645306 1.18435 0.0887402
0.115937 1.10411 0.0206027
-0.204664 0.979008 0.184443
0.24964 1.33923 0.192608
0.0782792 1.06123 -0.0237196
-0.129865 1.2031 0.279271
0.211662 1.26515 0.143911
-0.0536011 0.955072 0.304558
-0.13446 1.21111 0.27606
0.24581 0.943765 0.130911
0.0612578 0.897834 0.379108
-0.18495 1.03323 0.166407
-0.00990186 1.19808 -0.0238355
0.0614128 1.06935 0.408534
0.0670324 0.914133 0.401472
0.0514889 0.924113 0.391766
0.253502 1.04373 0.141522
0.0133192 0.979141 -0.0794434
-0.193127 0.986265 0.190157
-0.181557 1.29488 0.245775
0.217088 1.19786 0.278293
-0.190938 0.985684 0.190601
0.0530249 0.928987 0.391188
0.013126 0.957406 -0.0595837
0.0630974 0.897164 0.387377
-0.173501 1.27276 0.250619
0.205614 1.25161 0.13635
0.0316767 0.937111 0.0960017
0.155095 0.925663 0.139094
0.176404 1.07886 0.0821318
0.235604 1.33603 0.198824
0.176855 0.922147 0.133407
0.0456709 0.904138 0.301755
0.0429883 0.966474 -0.0498465
-0.194059 0.973449 0.190572
0.0881107 1.26879 0.462337
-0.18605 0.983749 0.192817
-0.0043786 1.34507 0.0226147
-0.106356 1.13529 0.113149
-0.192574 0.986006 0.190309
-0.0718893 1.10576 0.328028
0.00791772 1.34406 0.0202756
-0.170075 1.27818 0.167563
0.0247787 0.951512 -0.0203424
-0.0197361 0.977397 -0.0595466
0.0572862 0.968136 0.398899
0.0155264 0.986134 0.372808
-0.196426 0.973193 0.190107
0.152376 1.02361 0.342553
0.184354 1.06145 0.0851882
0.108708 0.959143 0.372701
0.104783 0.95491 0.375177
-0.0939135 1.15108 0.105945
0.0360286 1.34828 0.0406321
-0.14507 1.32333 0.212536
-0.202652 0.976796 0.185549
0.0250991 0.921979 0.372044
-0.101014 0.954504 0.165392
-0.154449 1.07513 0.147138
0.174161 1.08576 0.320066
0.0722088 1.23324 0.451954
0.0297799 0.947268 0.0212439
-0.143144 0.972152 0.104262
0.0241301 0.991826 -0.0751592
-0.200039 0.983276 0.188857
-0.189329 0.974245 0.16521
0.0522224 0.919385 0.390453
0.0525061 0.900397 0.338017
-0.00601854 1.33412 0.0348949
0.0298984 0.999389 -0.0712113
-0.193295 0.986315 0.190151
0.257111 1.06113 0.145622
-0.173568 0.971611 0.186552
-0.158021 1.25723 0.144901
0.0270169 1.31622 0.0264497
0.0533213 0.930702 0.392137
-0.0102124 1.16332 -0.0343554
0.00827111 0.984195 -0.0828428
0.072521 0.922858 0.395097
0.17152 1.07727 0.324485
0.133113 1.16375 0.0640609
0.237539 0.92073 0.107793
-0.112656 1.1289 0.117642
-0.00668607 1.33242 0.0366329
0.0946885 0.949975 0.0129125
0.0675727 0.959384 -0.0168667
0.170476 1.34329 0.133889
0.123164 1.34244 0.0945022
0.0386682 1.00815 -0.062694
0.262688 1.15002 0.165468
0.0100776 1.34487 0.0226449
0.25256 1.32869 0.181247
0.0352169 0.915251 0.222427
0.100755 0.950472 0.377687
-0.207418 1.21988 0.23225
0.107239 1.09249 0.0103853
-0.0122028 1.34466 0.0157023
0.244662 1.33989 0.189751
0.174209 1.30676 0.319744
-0.0355014 0.947937 0.318538
0.00627659 0.976213 -0.0772564
-0.19178 0.98589 0.190505
0.0118677 0.977085 -0.0795972
0.183286 1.10834 0.312984
0.0489125 0.965055 -0.042088
0.0371971 0.907649 0.261809
-0.0479779 1.07124 0.342647
-0.209022 1.1474 0.2206
0.25723 1.33639 0.199709
0.2455 0.946192 0.132525
0.0553684 0.942551 0.400038
0.0376988 0.914374 0.231689
0.0633791 1.04267 -0.0383152
-0.103114 0.972415 0.0290935
0.0300441 0.94453 0.0397647
0.0585711 0.899436 0.365348
0.18877 1.05552 0.0890221
-0.079129 1.08206 -0.00482327
0.0330354 0.918211 0.20503
0.0439416 0.91926 0.385051
0.0687712 1.13949 0.430564
0.0456493 0.902553 0.309158
0.0497036 0.902331 0.324233
0.26758 1.24121 0.1793
-0.189832 0.973265 0.18961
0.0710444 1.2519 0.457783
-0.0546917 1.05322 -0.0293527
0.0538136 0.92931 0.394519
-0.00273452 1.08666 -0.0573186
0.256936 1.3371 0.198317
-0.162625 0.974552 0.131861
0.0800167 0.93687 0.151511
-0.0463181 0.975171 -0.0441177
-0.0127519 1.29206 0.393879
-0.194103 1.32124 0.222751
0.216701 1.05862 0.224999
0.193472 1.23212 0.119323
0.0643882 0.913284 0.399765
0.264327 1.33391 0.200971
0.028378 0.920742 0.374968
0.215914 0.917157 0.12315
0.114718 1.33682 0.185564
0.00375433 0.977051 -0.0806207
-0.132862 0.970512 0.237942
0.241131 0.949979 0.107818
0.180842 1.06945 0.0833796
0.251574 0.954624 0.123174
0.219874 1.20458 0.275483
0.18069 1.13445 0.302003
0.100995 0.946914 0.0194267
-0.0435385 0.945971 0.155877
0.266284 1.33249 0.201833
0.239468 1.31458 0.169434
0.253511 1.32499 0.181681
0.250489 0.92821 0.113891
-0.0877983 1.15836 0.101645
-0.103295 1.15897 0.305379
-0.092437 1.14362 0.315047
0.114648 0.966356 0.367765
-0.0708062 1.30994 0.343975
0.00476128 0.977091 -0.081921
0.0498237 0.935462 0.38902
0.25486 0.932083 0.116486
0.252249 1.32468 0.179911
0.0593572 0.898629 0.370515
-0.206172 1.21064 0.23157
0.242083 0.96045 0.144412
0.0326563 1.34877 0.0376843
0.00911654 1.34674 0.0228716
-0.0104553 1.15651 -0.036768
0.0883587 1.25754 0.464484
-0.0659794 1.30817 0.34858
0.0364135 0.955352 0.383284
0.100097 1.24828 0.438186
0.249941 0.926456 0.124082
0.25066 1.33858 0.193696
0.104615 1.28601 0.406659
0.00621441 1.34428 0.0195528
0.209284 0.917859 0.124704
0.0839328 1.26592 0.461269
-0.0163125 1.29328 0.390241
0.257993 1.33621 0.200501
-0.202451 0.979571 0.185101
0.251138 0.926472 0.123315
0.0637603 1.33475 0.181892
-0.0234791 1.26471 0.0712805
0.00625685 0.988935 -0.0822489
-0.0494852 1.04688 -0.0351139
0.0100214 0.994612 -0.0811388
-0.163299 1.32294 0.224289
-0.020827 1.03625 0.356713
-0.0241945 1.00106 -0.0648213
0.00628169 1.01906 -0.0765412
0.0791105 1.24348 0.0431154
0.0699486 1.1574 0.43485
0.254642 0.923012 0.115202
0.00480302 1.02596 -0.0748416
0.248596 0.938844 0.125496
0.0890315 0.951848 0.00675961
0.00575796 1.03154 -0.0734168
0.0286683 0.94158 0.153115
0.0174942 0.92487 0.365328
0.155668 1.16327 0.0691827
0.0554882 0.899429 0.35011
0.0571151 1.34596 0.0544343
0.243103 0.952567 0.140087
0.0571245 0.938741 0.400932
0.103033 1.08696 0.0055178
0.068263 1.12239 0.425767
0.0672767 1.04695 -0.0341126
0.257381 1.06802 0.146656
0.113332 0.905699 0.357932
0.253685 0.923322 0.112631
0.00609276 0.94282 0.152689
-0.202594 0.97711 0.185398
0.0328622 0.920186 0.196354
-0.19755 0.973703 0.180627
0.246698 0.915647 0.112032
0.249674 0.923239 0.110875
0.0442983 0.907082 0.284816
0.258904 1.33451 0.201681
-0.18008 1.28949 0.246853
0.155882 0.909225 0.311368
0.0221868 0.955952 -0.0428081
-0.0967517 0.973228 0.0188277
0.0673156 0.913477 0.401811
0.201213 1.24384 0.13065
-0.184918 1.32587 0.239093
0.0988763 1.0822 0.000594357
-0.0198401 1.29437 0.387237
0.0972537 0.946401 0.37982
0.0965271 0.906072 0.372977
-0.201298 1.33883 0.241735
-0.142171 1.33305 0.175449
0.00903859 0.992849 -0.0813788
-0.191614 1.31815 0.218495
0.251969 0.949608 0.121872
0.00284767 0.976941 -0.0796798
-0.181952 1.03957 0.164302
-0.189444 1.31788 0.241442
-0.0286806 1.00858 -0.0592858
0.231082 0.969987 0.104661
0.0816533 1.26469 0.461511
0.0301918 0.946743 0.0267225
0.239692 1.33609 0.198838
0.00329268 1.34981 0.0204068
0.0742352 1.26026 0.459518
-0.199083 1.33887 0.242971
0.244039 0.950404 0.137419
-0.00390762 0.975916 -0.0671659
0.193978 0.919711 0.129058
-0.187441 0.983814 0.192274
-0.00796827 1.33422 0.0102085
0.178506 1.20408 0.0975365
0.0339931 0.959989 0.382091
0.101389 1.33623 0.183845
0.0580262 0.899787 0.360348
0.263743 1.16338 0.166685
0.265757 1.32461 0.210375
-0.20247 0.978937 0.185254
-0.063098 1.09321 0.333085
0.237227 1.31255 0.167066
0.0916022 1.22623 0.0471575
0.0684093 1.34493 0.0602275
0.008922 0.928483 0.356367
-0.00970492 1.20416 -0.0217946
-0.0481686 0.953032 0.308944
0.186106 0.920629 0.13117
0.263168 1.33403 0.204017
0.0610988 0.907216 0.398335
-0.00181299 1.35038 0.026544
-0.00896261 1.13279 -0.0439843
0.0917128 0.90604 0.378012
-0.0407013 1.03162 -0.0437426
0.00502206 1.33229 0.174283
0.141108 1.33771 0.187395
0.00890752 0.998704 -0.0812378
0.249405 0.936083 0.124227
0.0473242 0.938261 0.387815
-0.155698 0.967741 0.181252
-0.0148693 0.988271 -0.0718523
-0.0887556 1.10258 0.0114282
0.256946 0.930061 0.116444
0.0938496 1.25307 0.453114
0.191348 1.22755 0.116191
0.0460581 0.965861 -0.0458906
0.254684 1.32922 0.185878
0.259424 1.33631 0.201568
-0.158668 1.33194 0.194479
-0.186441 0.974684 0.161893
0.0220427 0.954525 -0.0391538
0.0255146 0.975861 0.378275
0.0236374 0.952847 -0.0308382
-0.0580801 0.95699 0.300325
-0.148435 0.966069 0.180323
0.261357 1.3336 0.205932
0.266099 1.33251 0.201684
0.033378 0.943044 0.0728567
-0.00531891 0.976111 -0.0656526
0.210037 1.26175 0.1417
-0.201407 0.978194 0.186155
0.0494838 0.923728 0.389919
0.0495416 0.925524 0.390778
0.239288 1.24225 0.261537
-0.199776 0.972644 0.184334
0.106321 1.23845 0.425042
-0.200524 0.995846 0.179923
-0.175356 1.28764 0.178755
-0.0636382 0.948905 0.158025
0.101663 1.21311 0.0504872
0.215563 1.2726 0.149261
0.245075 0.931043 0.137666
-0.169883 1.32343 0.228096
-0.201996 0.979324 0.185381
-0.132385 1.32482 0.206267
-0.0357184 1.23158 0.0775383
0.251492 0.926168 0.123011
-0.137339 1.09593 0.135472
0.128283 1.33757 0.186469
0.266498 1.32629 0.210423
0.00887677 0.983862 -0.0827564
-0.00992572 1.3439 0.0166545
0.25371 1.32649 0.181667
0.0752983 1.05718 -0.0267114
0.0695977 1.19171 0.440247
0.0532335 0.929751 0.39249
0.0889749 1.26298 0.461471
0.0852407 0.905203 0.38289
-0.011263 1.32116 0.0439968
0.00498626 1.04233 -0.070636
0.00813278 1.34696 0.0226617
-0.0264106 1.0049 -0.0618995
0.0082859 0.975551 -0.0721661
0.0701699 1.25594 0.457877
0.269181 1.22701 0.17911
0.213599 1.26895 0.146654
-0.194269 1.33283 0.23195
-0.00232838 0.975807 -0.0693316
0.0104678 0.959541 -0.063263
0.0718764 1.24832 0.457278
-0.124412 1.32689 0.199151
0.17642 1.14157 0.309074
-0.148891 0.972916 0.111683
0.0184552 1.33238 0.0260076
0.0540387 0.939769 0.153672
0.0113295 1.34206 0.0224126
0.051421 0.901563 0.331035
0.00957175 0.9967 -0.0812532
0.261284 1.31462 0.187295
0.115181 1.22921 0.410732
0.0329167 0.941315 0.080691
-0.165501 1.06331 0.152792
0.191449 0.917032 0.0863303
0.0458486 0.940796 0.387493
-0.198926 0.97315 0.182591
-0.211024 1.27629 0.234593
-0.0553782 1.08313 0.338566
0.0253054 0.952885 -0.0264238
0.227935 1.03087 0.197662
0.0055326 0.976082 -0.0760711
0.00841736 1.00974 -0.0791097
-0.0325959 0.94483 0.153937
0.166987 1.15611 0.323974
0.0545952 0.949768 0.399687
0.0883953 1.26428 0.462572
-0.125803 1.19507 0.282202
0.130564 1.34317 0.0986581
-0.155217 1.24964 0.263151
-0.180982 0.98233 0.196097
0.00123907 1.06269 -0.0648801
-0.167819 0.970597 0.184932
0.0467438 1.28196 0.0326907
-0.0704041 0.977153 -0.0235382
-0.0515187 1.07708 0.340782
0.0781502 1.27481 0.446266
-0.0135749 1.34606 0.0160313
-0.19663 1.32292 0.225868
-0.188202 1.31331 0.212288
-0.0911457 0.97371 0.00895804
0.24376 0.945062 0.108881
0.135289 0.988685 0.356405
-0.00414876 0.943276 0.153064
0.046424 0.901718 0.315514
0.0143842 1.33314 0.175296
0.218198 1.3192 0.266231
0.0648051 1.08518 0.413172
0.251855 0.923427 0.111678
-0.00189576 1.34573 0.0185007
0.0875965 1.33594 0.18229
-0.0112014 1.14067 -0.0422621
0.207841 1.25648 0.138928
0.00822032 1.00101 -0.0811874
0.0502585 0.922766 0.390284
0.0168418 1.28533 0.420417
-0.0314527 1.24025 0.0759373
-0.0665358 1.09787 0.330923
0.00639077 1.34704 0.0215846
0.0788324 0.954417 -0.0043528
-0.200683 1.32689 0.229468
0.220619 1.341 0.174184
-0.103789 1.32847 0.192354
0.0113072 0.927948 0.358756
0.266094 1.29882 0.232629
-0.207161 1.17337 0.226433
0.0411203 0.9409 0.154128
0.264837 1.25744 0.18059
0.171685 1.14841 0.316617
-0.00989547 1.0193 0.360819
0.0665282 1.09233 0.416079
-0.201426 0.98732 0.190177
0.0388993 0.951384 0.384659
0.137019 1.20272 0.373957
-0.0978203 1.15187 0.310627
-0.192439 1.3201 0.238781
-0.116061 1.18043 0.29193
-0.148441 1.33248 0.182076
0.267597 1.21852 0.176815
0.158634 1.17122 0.338911
-0.0999711 1.14311 0.109491
0.263419 1.29223 0.186123
0.257346 0.93017 0.117607
0.133588 1.20743 0.379761
-0.0836583 1.09186 0.00282266
0.038952 0.912247 0.245463
0.235668 0.915904 0.116135
-0.0588142 1.08793 0.336217
-0.0802424 1.16675 0.0971261
0.210256 1.31683 0.273236
-0.183799 1.30025 0.24405
-0.013916 0.943382 0.1524
0.21568 1.00214 0.101361
0.0713951 1.21463 0.445987
-0.156551 0.973567 0.124304
-0.0242406 1.04251 0.355788
-0.141513 0.964297 0.178744
0.0676437 0.9094 0.404817
0.195918 1.23644 0.122835
-0.185117 1.30848 0.205362
-0.00600388 1.33162 0.172195
0.20588 1.08671 0.252583
0.0191007 0.98291 0.374767
0.162607 1.16419 0.33167
-0.196602 1.33239 0.234185
0.24787 0.930644 0.134875
0.0948477 1.07762 -0.00412296
0.00710078 0.984985 -0.0829278
0.0627385 0.896405 0.389208
0.0131666 0.976874 -0.0793191
0.028222 0.947252 0.0129437
-0.035054 0.975034 -0.0501292
0.132049 0.935542 0.0479294
0.124178 1.1166 0.0294022
0.0388017 0.910512 0.253136
-0.182706 0.982389 0.194949
0.153307 1.12481 0.0716694
0.0246299 1.32102 0.0263723
-0.0156485 1.31466 0.0512667
0.137406 0.932533 0.0517556
0.241238 0.970261 0.148968
-0.17315 0.981022 0.202543
0.26134 1.33346 0.195935
-0.111388 1.17327 0.296946
-0.131214 1.33318 0.165318
0.240763 0.920379 0.108279
-0.179319 1.28461 0.246987
-0.0235312 0.999699 -0.0652324
0.164601 1.33719 0.187942
0.0891377 1.28039 0.426796
-0.00837907 1.32761 0.0392777
-0.0233908 1.29507 0.385122
0.0324033 0.936467 0.101805
-0.00356027 1.34179 0.0280447
-0.00367692 1.34068 0.0286476
-0.0723466 1.1755 0.0930204
0.260653 1.32986 0.196557
0.257721 1.27864 0.241877
0.201041 1.15854 0.296311
0.180408 1.30873 0.312731
0.233794 1.00731 0.176023
-0.010014 1.32305 0.0417413
0.21584 1.33634 0.195541
0.0626409 0.895463 0.391478
0.12054 0.905564 0.351832
0.0618852 1.26469 0.0378401
-0.202089 1.331 0.239533
-0.200342 0.973129 0.187307
0.0321856 0.938885 0.0889425
0.119198 0.931319 0.146975
0.241687 0.965247 0.146424
0.0134936 1.34026 0.0237324
0.25909 1.33279 0.20879
0.234494 1.34173 0.183109
0.026882 0.948797 0.0019473
0.140234 0.996329 0.35256
0.00785594 1.01295 -0.078236
0.0216173 1.32683 0.0264145
0.00196841 1.35439 0.0143474
-0.179556 1.32442 0.23531
-0.0186952 1.25845 -0.00914967
0.00663765 0.976715 -0.0762855
-0.161832 0.96906 0.182287
0.0256725 0.948812 -0.00209472
0.252282 0.97985 0.129773
-0.128261 1.32579 0.202995
0.0335665 0.930567 0.134214
-0.00736683 1.33024 0.0379644
0.16633 0.924011 0.136354
0.252824 0.993688 0.131237
0.0952351 1.25113 0.448905
-0.178743 1.04553 0.161737
-0.0779173 1.11501 0.32441
0.0176966 1.35058 0.0272773
-0.179004 0.972167 0.186645
0.0789111 0.928108 0.391173
0.0172207 0.942078 0.152436
0.198575 1.10357 0.268712
-0.12128 1.18765 0.2864
0.0521145 1.27648 0.0346889
-0.184187 0.982781 0.193971
-0.0856168 0.974002 0.000936687
0.247813 1.33966 0.191305
0.17559 1.19965 0.0934318
0.017643 0.986212 -0.0793905
-0.0831528 1.12494 0.321112
0.224764 1.32131 0.259306
-0.164455 1.26134 0.257033
-0.0594833 1.05692 -0.0261164
0.253671 1.00502 0.133602
-0.0235449 0.943974 0.152923
-0.123185 0.972745 0.0673052
0.2253 0.916456 0.119323
0.00134361 1.35574 0.0141071
0.0578996 0.983085 0.398857
0.256692 1.33654 0.199277
0.00583872 1.0367 -0.0721149
-0.204297 1.3298 0.237771
0.131775 0.929064 0.144099
-0.0036808 1.34382 0.0267125
0.242456 0.956474 0.142518
-0.177262 1.27892 0.248027
0.0451421 1.01607 -0.0561991
