ply
format ascii 1.0
element vertex 1554
property float x
property float y
property float z
end_header
-0.119338 -0.0228282 0.0281476
-0.115532 -0.0562601 -0.0279166
-0.0489346 0.184567 -0.0140503
-0.040607 0.0491699 -0.0748952
-0.0423621 0.0471284 -0.0752401
-0.030634 -0.0951709 0.0289148
0.0521572 0.0466928 -0.0438691
-0.0404837 -0.0954578 -0.00764616
-0.0484228 -0.089755 0.00245023
-0.0278733 -0.0994224 -0.000218267
0.0600055 0.0400721 -0.0430612
-0.105009 0.00719187 -0.0231483
0.0598853 0.0404005 -0.0430262
-0.0316886 -0.100721 -0.0233821
-0.0840366 -0.0838193 -0.0299575
-0.0123284 -0.0996619 -0.0810944
-0.0868651 -0.0815913 -0.0304907
0.104431 0.00365588 -0.0361338
-0.0862408 -0.0824908 -0.0294633
-0.0379823 -0.0981051 -0.0147282
-0.0285017 -0.0987507 0.00639942
-0.012055 0.0559645 -0.088751
-0.00848055 0.151588 0.029695
-0.0291693 -0.10178 -0.0251933
-0.066353 0.0299817 0.047509
-0.0395809 -0.10109 -0.0295172
-0.0387801 -0.101266 -0.0298361
-0.0427805 -0.100104 -0.0281099
-0.055664 -0.0935886 -0.0274873
-0.0472242 0.158504 -0.115322
-0.0308273 -0.10155 -0.0307206
-0.0102312 0.154467 0.0254944
-0.0284443 -0.101738 -0.0249959
0.0392367 0.103556 -0.156629
0.122267 -0.00340379 -0.0240599
-0.0324976 -0.101707 -0.0306901
0.0148807 0.148636 0.0218408
-0.115901 -0.0297197 -0.0273072
-0.121511 -0.0287397 -0.0137479
0.0387733 0.0232163 0.146248
-0.112502 -0.0656153 -0.0274781
-0.0329263 -0.101757 -0.0314166
-0.0382423 0.0527021 -0.0806869
-0.00612373 -0.0941922 -0.0998502
-0.115593 -0.0555571 -0.0274769
-0.0186932 0.208601 -0.0380367
-0.0370335 -0.0986651 -0.0166304
-0.120529 -0.029902 -0.0578364
0.0261443 0.108677 -0.178855
0.0202962 0.0520198 -0.0859637
0.0100767 -0.0310466 -0.135368
-4.42876e-05 0.103206 0.132533
0.0118041 -0.0302096 -0.135734
-0.0651434 0.0309863 0.0480905
-0.0123935 -0.0328076 -0.126544
0.00617416 -0.101468 -0.0233886
-0.0136434 -0.0327924 -0.125489
0.0030164 0.0145286 -0.128895
-0.0971351 0.0162362 0.0306409
0.00745737 -0.0018229 -0.133961
-0.00737706 0.0889771 0.103073
-0.0588011 -0.0306841 -0.122518
-0.0104628 0.112698 -0.187971
0.0422409 0.125477 -0.119612
0.0490944 -0.0243675 -0.120979
0.0751883 0.123603 -0.0449865
-0.0547141 -0.0301993 -0.124536
0.0851076 -0.0897893 -0.0271295
0.0748618 0.0149424 -0.0409677
-0.0138695 -0.100031 -0.0745313
-0.0853375 -0.0832653 -0.0293318
-0.0255642 -0.0376782 0.137284
0.000680752 0.113344 -0.189628
-0.114267 -0.0635956 -0.0273967
-0.043388 0.0427939 -0.079214
-0.0841059 -0.0745236 0.056004
0.00173361 -0.0227809 -0.13393
0.0171343 0.0525704 -0.0870598
0.00291773 -0.0177916 -0.134864
-0.0643731 -0.0310671 -0.119207
-0.047177 0.0987803 -0.123598
-0.0662992 -0.0304464 -0.117819
0.00975733 0.0534596 0.00623284
-0.0653526 -0.0308151 -0.118557
0.00400249 0.0377782 0.0127164
-0.0034229 0.0526272 0.154011
-0.0459623 0.0969794 -0.132124
-0.00598167 -0.0318867 -0.133077
0.00161224 0.0737523 0.023273
0.0641262 0.180048 -0.057994
-0.026769 -0.053249 0.12919
-0.0435465 0.044195 -0.0762677
0.0037249 0.130634 0.0350556
0.0141413 -0.101043 -0.0238257
-0.0494392 0.0302493 -0.0827526
-0.0544683 0.0242046 -0.0877421
7.44248e-05 0.104162 0.130751
-0.0120395 0.0542132 -0.0886457
-0.00229762 0.139936 0.0356995
-0.0115193 0.0541015 -0.0890483
-0.0259178 0.0540455 -0.0871871
-0.0960284 -0.055336 0.0715661
-0.11326 -0.0305746 -0.071828
0.00769213 -0.0305533 -0.134134
-0.0909718 0.0192754 0.0351849
-0.0512723 0.0274465 -0.0880765
-0.0165375 0.207258 -0.0228488
-0.0308363 0.132787 -0.128192
0.00478381 0.0383092 0.0160575
-0.054327 0.0401402 -0.0296677
0.0503754 0.0621123 -0.0209953
0.0268641 0.147182 0.0325422
-0.0535441 0.0412846 -0.0297479
0.0426477 0.123386 -0.121198
-0.0608697 0.0109567 -0.102984
-0.0290403 -0.101661 -0.024604
-0.0604021 0.115657 -0.0983322
-0.00587249 0.0835926 0.101196
0.0921298 -0.080867 0.0092131
-0.042989 0.105512 -0.128361
0.0216691 0.152507 0.0313478
-0.124094 -0.0196385 -0.0164399
0.000963589 -0.0257153 -0.133315
0.000758597 -0.0231127 -0.133274
0.00570619 0.00622236 -0.132136
-0.0459862 0.0986139 -0.142608
-0.013599 -0.00281521 0.144533
-0.0137249 0.0512454 -0.0873723
-0.0462045 0.0990443 -0.143747
-0.0779431 -0.00865455 -0.118266
-0.0588698 0.0131832 -0.0997747
-0.078643 -0.0105634 -0.117358
-0.076648 -0.00648646 -0.117645
-0.0109933 0.0514105 -0.0878213
-0.030859 -0.0301395 -0.12116
-0.0767408 -0.0291083 -0.107936
-0.11499 -0.0204875 0.0439877
0.00357829 0.151611 0.0206035
-0.0881916 -0.00963196 0.0842848
-0.03753 0.103784 -0.168498
0.0624549 -0.0506489 0.114097
-0.0439225 0.153973 -0.121188
-0.0442853 0.104005 -0.129361
-0.06475 0.00713195 -0.107774
-0.05814 0.0346167 -0.0287522
0.0336408 0.112654 -0.162419
0.0068576 0.00181823 -0.133196
-0.0219473 0.212001 -0.0723675
-0.0553391 0.0179142 -0.095095
-0.0251097 0.208948 -0.0526679
-0.0720657 0.140371 -0.0342973
-0.0618902 -0.031039 -0.120511
-0.0245875 0.211037 -0.0664656
-0.00531812 0.146795 0.033992
-0.0517692 0.165645 -0.10857
-0.0630771 0.180444 -0.0804195
0.04429 0.105949 -0.121958
-0.0578942 0.174959 -0.0982065
-0.0622847 0.179104 -0.0862886
-0.0170996 0.109765 -0.188235
-0.0863815 -0.00357737 0.113037
-0.0627849 0.180273 -0.0824948
-0.00132683 0.149729 0.0318068
-0.0253593 0.109012 -0.182438
-0.123801 -0.0277485 0.00322525
-0.0685737 -0.0304958 -0.114531
0.0660172 -0.0579593 0.103525
0.094116 0.0129684 0.0625662
-0.0750658 -0.00432554 -0.116399
0.0721401 0.124774 -0.0800717
-0.0655223 0.00636807 -0.108467
-0.0677174 -0.0302848 -0.115717
-0.0719152 0.0039615 -0.107421
0.0868919 0.0194885 0.0801841
-0.0737345 -0.00275366 -0.115828
-0.0490192 -0.0893683 0.00351742
-0.104611 -0.0676217 -0.0271215
-0.0810218 -0.0292263 -0.105517
0.062884 0.0404691 0.11225
-0.0839634 -0.0186981 -0.108443
-0.0829513 -0.0299122 -0.103633
-0.0317787 -0.101698 -0.0296502
0.0805342 0.02619 0.0919721
-0.123735 -0.0274648 0.00224873
-0.0743063 0.133633 -0.061977
-0.0739716 0.132797 -0.0638444
-0.124409 -0.0259534 -0.0398105
0.107002 -0.00940568 -0.0844024
-0.123918 -0.0261407 -0.0386027
0.00361577 0.0374373 0.0103079
-0.0632759 -0.0937865 0.021017
-0.0713649 0.00676767 -0.106258
-0.122059 -0.0130884 -0.0088004
0.0640472 0.119094 -0.0972976
-0.0706017 0.00815227 -0.105643
-0.0406921 0.05883 -0.0761888
-0.121908 -0.0265968 -0.0340526
-0.0741937 -0.000448323 -0.107054
-0.103778 -0.0290126 -0.0889714
-0.00541954 0.175712 0.0240867
0.041304 0.10395 -0.152469
-0.110836 -0.0303772 -0.0791305
-0.0151151 -0.00564372 0.144121
-0.11586 -0.0327223 -0.0287418
-0.123405 -0.0261788 -0.0372883
-0.0813537 0.0227794 0.0418711
-0.110755 -0.0661236 -0.0268997
0.0245507 0.153045 0.0302475
-0.108832 -0.0668175 -0.0267422
-0.0897058 -0.0791433 -0.0300586
-0.087605 -0.0810211 -0.0303455
-0.0636437 0.18575 -0.0638396
-0.115471 -0.0631846 -0.0262572
-0.110395 -0.030773 -0.0795988
0.0538529 0.0599242 0.121119
0.0250773 0.0905582 0.125009
0.0326805 -0.0289921 -0.130047
0.000150647 -0.0664593 -0.126013
0.0407407 -0.0283964 -0.127494
0.00313189 0.0786673 0.0263603
-0.00693728 0.0946759 0.106501
-0.067457 0.0121996 -0.103067
-0.0347573 0.120029 -0.156755
0.0025666 0.0361581 0.0552997
-0.0686473 0.0109351 -0.104341
-0.0818031 -0.0156366 -0.109787
-0.0816219 -0.0154568 -0.110144
-0.0615733 0.0102302 -0.103631
-0.120421 -0.00834765 -0.00454005
-0.0401965 0.0526479 -0.0732726
-0.044786 0.0944276 -0.110508
-0.0485095 -0.0977844 -0.0257549
-0.0816956 -0.029234 -0.105121
-0.0384475 -0.0893779 0.0641316
0.0407221 0.0206486 0.1464
0.0410722 -0.0990353 -0.0232761
-0.00312138 0.154218 0.0222666
-0.0359716 0.0622195 0.0912244
0.0727566 -0.0922313 -0.0254141
0.0477042 0.110774 -0.119332
-0.0630893 0.0305513 -0.0277602
0.0953306 -0.0818767 -0.0284924
-0.0205539 0.111665 -0.187159
0.122148 -0.0407887 -0.0307048
-0.0242044 -0.0192932 0.144056
0.0339413 0.0542043 -0.07784
-0.0684641 0.141926 -0.0236492
0.0335202 0.0847761 0.124343
0.023803 0.0529965 -0.0850703
0.0481945 0.142873 -0.111813
-0.123348 -0.0279905 -0.00539847
-0.0357846 0.118819 -0.156237
0.0304352 0.0543337 -0.0824138
0.0673724 0.0262954 -0.0422407
-0.0315872 -0.069272 0.114563
-0.0110628 -0.098726 -0.0833236
-0.0436658 0.152501 -0.122007
0.0614765 0.0353564 -0.0428881
-0.00218052 0.0886991 0.124634
0.0534812 0.0462386 -0.0439659
0.0727151 0.134976 -0.0249704
0.0452641 0.058997 -0.0621655
-0.0144289 0.0555165 -0.0893142
-0.0379053 0.0568225 -0.0802315
0.0433204 0.10323 -0.133166
-0.115848 -0.0289362 -0.0269657
-0.0750155 -0.00424363 -0.108039
-0.0301746 0.130538 -0.131608
0.0311776 0.0423771 0.146219
0.0498509 0.0625443 -0.019067
0.0944372 -0.0812817 -0.0197299
-0.0729237 -0.0852112 -0.0299694
-0.000727228 0.0338532 -0.113904
0.0447642 0.116534 -0.126249
0.101305 -0.078372 -0.0247504
-0.0295686 0.0743978 0.136315
-0.0124379 0.00941961 0.142996
-0.00219657 0.0387697 -0.107849
0.00139514 0.052819 0.086015
-0.115575 -0.0538992 -0.0275722
-0.0293315 -0.0300776 -0.121593
-0.0249441 0.0551535 -0.0871731
0.0445555 0.113952 -0.126976
-0.0341846 0.0509372 -0.0840658
-0.0118213 0.205757 -0.0144071
0.0276505 -0.0299311 -0.132263
-0.114184 -0.0201488 0.0462942
0.0434042 0.104625 -0.137499
0.0596951 -0.0484619 0.119056
0.0220362 -0.0307839 -0.134449
0.0421514 0.131402 -0.116564
0.112554 0.000182982 -0.0352323
-0.0933072 -0.0309386 -0.0931844
0.0563451 -0.0467558 0.124339
-0.0936498 -0.0720155 -0.030984
0.00415854 -0.0163905 -0.135103
0.0490562 0.111664 -0.118028
-0.0802787 0.010537 0.111027
0.0429107 0.104227 -0.123333
0.00153539 0.0458612 0.0751875
0.0989277 0.00781388 -0.0367566
0.00229492 0.0585095 0.00674478
0.0751612 0.124122 -0.0447383
0.0689402 0.133086 -0.015019
0.0047736 0.035396 0.0354727
0.0512208 0.0482842 -0.0432958
0.100487 0.00371738 0.0441863
0.0501889 0.0581566 -0.0421145
-0.106264 -0.0296496 -0.0841219
0.0501736 0.0581975 -0.0413972
0.065547 -0.0563382 0.105328
-0.110133 0.00316711 -0.0233788
0.0358802 -0.100014 -0.0226782
0.120323 -0.0556119 -0.0274312
-0.117819 0.0013134 0.00696848
-0.0419723 0.117184 -0.125969
-0.0316364 -0.0939938 0.037629
0.0387798 -0.0995585 -0.0228287
0.0338329 0.118801 -0.158619
-0.0776521 -0.0292341 -0.107297
-0.0853928 -0.0302349 -0.0995253
0.124606 -0.0208731 -0.0317967
0.00097751 -0.0607126 -0.129211
-0.053812 0.0580283 0.136861
0.122442 -0.00602716 -0.0319572
-0.0412443 -0.0943276 -0.00637344
0.06016 -0.0494952 0.117828
-0.00666567 0.0944823 0.105712
0.0502998 0.0625424 -0.0201648
0.123095 -0.00654059 -0.0335685
-0.0219506 0.171682 0.020159
0.122884 -0.00598032 -0.0327982
-0.0913735 -0.0197408 0.101301
0.122898 -0.00711784 -0.0354843
0.0538744 0.177384 -0.0219299
0.109385 -0.00357114 0.0209882
-0.045131 0.0995198 -0.152309
-0.00860931 0.206972 -0.00555684
0.0990525 0.00555774 0.0504196
0.0831434 -0.0818092 0.0340286
0.0440514 0.104416 -0.146277
-0.115895 -0.044449 -0.0283523
0.122172 -0.00440412 -0.0252624
-0.0104454 0.151164 0.030109
-0.0130868 0.133453 -0.133676
-0.0128669 0.111857 -0.188186
0.00248221 0.0363068 0.0568779
-0.0113252 0.0560528 -0.0894335
0.00466857 0.0380329 0.0174434
-0.0422217 0.107941 -0.157002
0.0037752 0.0375114 0.0113302
0.12232 -0.00327825 -0.0234443
0.122292 -0.00279778 -0.0219897
0.0468368 0.135234 -0.11444
0.122154 -0.00536541 -0.0295337
-0.0971056 -0.0305671 -0.0921541
-0.0917693 -0.0147705 0.0642502
0.051742 0.0469091 -0.0440628
0.122013 -0.0417788 -0.0303219
0.0063466 0.0544263 0.00811122
-0.0990269 0.0160858 0.0284053
-0.116009 -0.0428403 -0.0278888
0.00161821 0.046475 0.0771452
0.0555231 0.115774 -0.10928
0.00188523 0.0432518 0.0705111
-0.0337663 -0.101843 -0.0316297
0.0974662 0.00875496 0.055224
0.00458415 0.0382356 0.0150933
-0.0537482 0.020562 -0.0929827
0.000278514 0.0578506 0.0915333
0.0618062 -0.0502311 0.115118
0.0750948 0.124673 -0.0518015
0.0224028 0.146362 0.0211361
0.00392984 -0.0459382 -0.134013
0.00456669 0.0353386 0.0368827
0.119184 -0.00414706 -0.0147939
0.00171706 0.0662947 0.0173867
0.00436233 0.113831 -0.189133
-0.0179117 0.100026 0.116558
0.0935879 0.0135499 0.0635732
-0.0769573 -0.00939577 -0.108671
0.0620621 0.179181 -0.0554918
0.121958 -0.0457252 -0.0281921
0.00112345 0.0531603 0.0865869
-0.0469962 0.0353699 -0.079972
0.119925 -0.00891455 -0.0516326
-0.0268537 0.128773 -0.156437
-0.0183355 -0.0322076 -0.123037
0.0118668 0.0844815 0.140997
0.12215 -0.00338661 -0.024827
0.117543 0.00164709 -0.0336155
0.025896 0.0895171 0.124221
0.00182023 0.0519138 0.0845628
-0.0274074 -0.100621 -0.0318206
-0.00116318 0.0719543 0.150223
-0.0400844 -0.0962889 -0.00827269
0.0149225 0.0795055 0.147413
0.0174158 0.111149 -0.181974
-0.00574591 0.051618 -0.0886628
-0.0212411 0.212921 -0.075473
0.0771127 0.0296299 0.0974015
0.110845 -0.00566841 0.0092045
-0.123198 -0.0271293 0.00987629
-0.0154059 0.110405 -0.188188
0.0125493 0.0835578 0.142274
0.0132851 0.0823527 0.143906
-0.0295 0.0564573 -0.00773365
0.123004 -0.0382283 -0.0309139
0.0558845 0.0443179 -0.0444822
-0.0480698 0.100535 -0.114714
0.0466753 0.140293 -0.00376359
-0.0253612 -0.0312594 0.140553
-0.00536892 0.190246 0.0153025
-0.0257523 -0.0341015 0.13907
0.0619521 0.0342029 -0.0425961
-0.044674 -0.0994497 -0.0270371
-0.0406778 -0.0949994 -0.00724896
-0.0112316 0.0109803 0.143914
-0.093283 -0.0386788 0.0846945
-0.012648 -0.00988535 0.140557
-0.0306937 -0.0943218 0.0347661
-0.00168702 0.066111 0.152526
-0.0511421 0.0604851 0.138248
-0.0342204 0.0609062 -0.0054796
-0.0278053 0.0577041 -0.00328048
0.105327 0.00318105 -0.0359259
-0.0300901 -0.0626388 0.122109
0.0610898 0.0364038 -0.0432167
-0.0288898 -0.101204 -0.0332296
0.0425934 0.103424 -0.150438
-0.000167011 0.0994363 0.124116
-1.48468e-05 0.113308 -0.189759
0.0338364 0.0396057 0.144766
-0.110707 -0.0659376 -0.02764
0.00204834 0.0397845 0.0645358
0.0519488 0.115826 -0.114722
0.0497446 0.0597543 -0.027872
-0.0129716 -0.00899633 0.140928
-0.0609497 0.115552 -0.0979549
-0.0123486 0.00993704 0.143093
-0.0466743 0.0368689 -0.0792232
0.0682343 -0.0581901 0.100165
-0.0260328 -0.0427746 0.134603
-0.122304 -0.0259538 0.0142187
0.093271 0.013819 0.0649156
-0.00148484 0.135975 -0.156187
0.0542921 0.115947 -0.110734
-0.0712422 0.0275441 0.0441258
0.0495992 0.0578346 -0.0383816
-0.0413048 0.148521 0.0204823
-0.0583084 0.0137846 -0.0992575
-0.00290568 0.028417 -0.122558
-0.0575954 0.0351126 -0.0288862
-0.0453424 0.0967893 -0.136084
-0.0942334 -0.0177318 0.0546785
-0.00747364 0.151672 0.029642
0.0735149 0.125466 -0.0707883
-0.000812696 0.0768534 0.14828
-0.0524521 0.0240369 -0.0908504
-0.0629139 0.189444 -0.0490316
-0.0229364 0.0813447 0.137675
0.0703151 0.123327 -0.0853273
-0.0529762 0.058936 -0.0338088
-0.0323427 0.0685359 0.09616
-0.000160288 0.0570886 0.0914292
-0.00581123 0.0813382 0.100562
-0.080878 -0.0140399 -0.109654
0.0628567 0.0408874 0.113395
0.0971011 0.00950196 -0.0371547
-0.111826 -0.0302817 -0.0763025
-0.00966425 -0.0758615 -0.110408
0.00249928 0.0991591 0.121531
-0.0338921 0.0662669 0.0949078
-0.0452002 0.156173 -0.118587
0.0924749 -0.0807067 0.00381752
-0.0714339 -0.0305588 -0.111327
0.00150014 0.0460308 0.0758501
-0.0383656 -0.0313051 -0.119708
0.122168 -0.00525331 -0.0269229
0.0269786 0.106331 -0.174369
0.108174 -0.00277064 0.0247515
0.107626 -0.00235129 0.0262527
0.00154827 0.046179 0.0764264
0.0561735 -0.0304639 0.133736
0.101013 0.0021632 0.0357984
0.110793 0.000667134 -0.0353947
-0.0195411 -0.031667 -0.123069
0.058692 0.0421942 -0.0433603
0.0578229 0.0438143 -0.0432574
0.0448592 0.10759 -0.126817
0.0504599 0.0620043 -0.0226254
-0.0377653 0.144734 -0.128088
0.111669 -0.00565999 0.00380045
0.111244 -0.00501973 0.00664615
0.0279812 0.147054 0.017116
-0.0369516 0.0530445 -0.0816799
0.0620886 0.135976 -0.0125722
0.0925796 -0.0806002 -0.000200115
-0.0034423 0.060631 0.153113
-0.068748 -0.0877268 0.0310826
0.0563886 -0.0361646 0.130833
0.0617934 -0.0949979 -0.0231069
-0.115578 -0.0106883 -0.0210616
-0.0515711 0.186681 -0.0246465
0.0141251 0.051896 -0.0882541
-0.0566769 0.0532025 0.134061
-0.0217735 -0.10055 -0.0404952
-0.04854 0.181482 -0.0101046
-0.0488009 0.182862 -0.0131109
0.0187116 0.110287 -0.181705
-0.0326887 0.128019 -0.13447
0.0158157 0.0548667 0.00622206
0.0405922 0.10249 -0.150364
0.121079 -0.00729995 -0.0427799
0.000791527 0.0533676 -0.0886216
-0.0936507 -0.0295684 0.0949763
-0.058304 0.0343921 -0.0286705
-0.0368583 0.1175 -0.155545
0.042162 0.130274 -0.117443
-0.0785394 0.0239388 0.0426747
-0.0532465 -0.0301322 -0.124668
-0.0518303 0.0598901 -0.0280016
0.00362409 0.0360107 0.042966
0.0534894 0.137899 -0.00891043
0.0745949 0.123211 -0.045483
0.0750447 0.134323 -0.0343094
0.00360309 -0.10163 -0.0241361
-0.0846741 -0.0213516 -0.108109
-0.105673 -0.0678616 -0.0260892
0.000356338 -0.101707 -0.0239504
0.068357 -0.062288 0.0971851
0.100469 0.00361556 0.0423568
-0.00177586 0.142576 0.0358303
-0.000556132 0.0782081 0.146892
-0.0411598 0.0420777 0.0800929
-0.112533 -0.065621 -0.0268559
-0.0778037 -0.08353 -0.0315256
-0.0111041 0.0176845 0.143693
-0.0426643 0.184329 0.00105131
0.0948329 -0.0806979 -0.016938
-0.0653326 0.0422441 0.132384
-0.0414423 0.111007 -0.155851
-0.111876 -0.0656623 -0.0273559
-0.0194246 0.0551945 -0.0882771
-0.0889033 -0.0113535 0.078662
0.0655755 0.136764 -0.0167171
-0.0328736 0.0713732 0.13576
0.0493132 0.000550513 0.142258
0.000898564 0.0198903 -0.123916
-0.00170438 0.0870672 0.12651
-0.00472337 0.151559 0.0298352
0.0783478 0.0282901 0.0936469
0.0749413 0.124517 -0.0528041
0.00428122 0.0352818 0.0383398
-0.00410163 0.151799 0.0294551
-0.0237609 -0.100266 -0.0275586
0.0541806 -0.0239032 -0.117298
-0.0496453 0.0295827 -0.0831951
0.0236499 0.147885 0.0198398
-0.120264 -0.0251618 0.0210908
-0.00367938 0.108578 0.12081
-0.071054 0.0255426 -0.025072
-0.0358394 0.0572047 -0.0818183
-0.00265806 0.107883 0.11767
-0.0398831 0.0521669 -0.0736768
-0.0939377 -0.0332359 0.0920146
0.0752272 0.131627 -0.0400719
0.0300861 0.14603 0.0156414
0.072219 -0.0651079 0.0896427
0.0261291 0.0540654 -0.084966
-0.00502836 -0.0767788 -0.116318
-0.0637665 0.185892 -0.0618225
-0.066078 0.0414001 0.133434
0.0238029 -0.100332 -0.0234965
-0.0442442 0.0592281 -0.0697512
0.0779633 -0.0202665 -0.104371
0.122201 -0.00582978 -0.031227
-0.000444802 0.0667507 0.0935673
0.0219922 0.152596 0.0313065
0.0857006 -0.0897053 -0.0273134
-0.0388316 0.0573322 -0.0785856
0.107183 -0.00206636 0.0279841
0.0760138 -0.0916682 -0.024886
0.108282 0.00246837 -0.0351878
0.0722297 0.124813 -0.0779612
-0.027119 -0.0863284 0.0607192
-0.115559 -0.0255861 -0.0262788
-0.0240087 0.08814 0.106704
-0.0227324 0.11076 -0.185015
0.101929 -0.013836 -0.088956
-0.0743556 0.134162 -0.059896
-0.00800984 0.0901923 0.103969
-0.0371542 0.105167 -0.168969
-0.00797788 0.0229149 0.143608
0.0671053 0.120643 -0.0923457
0.124573 -0.0164469 -0.0325732
-0.00706726 0.0970474 0.110116
0.124551 -0.0325701 -0.0329182
-0.0733155 -0.0300073 -0.109993
-0.00050842 0.150564 0.030168
-0.00779131 0.0895706 0.103568
-0.00323966 0.151146 0.029796
0.00993476 0.054 -0.0897789
-0.0112295 0.206341 -0.0957799
-0.0474324 0.185558 -0.00850112
-0.0028554 0.151378 0.0299797
0.0698774 0.0348663 0.104889
-0.00129985 0.150392 0.0313358
0.0673072 0.0361653 0.10677
-0.0741709 -0.0846134 -0.0303481
-0.00612672 0.205935 -0.00114974
-0.0136201 -0.00814219 0.141805
-0.0433334 -0.0928552 -0.00369555
-0.0066921 0.206528 -0.00247078
0.0495345 0.0596243 -0.0266901
-0.00708484 0.0930739 0.105106
-0.00268356 0.0560324 0.154083
0.0273807 0.132294 -0.130445
0.00198098 0.0384554 0.0627485
0.0346774 0.112161 -0.161182
-0.115994 -0.03088 -0.0652238
-0.0149271 0.206408 -0.0189102
-0.00857891 0.0500268 -0.0906716
0.00158467 0.0502134 0.0826419
0.0119523 0.0992327 0.122132
-0.00198517 0.0358046 -0.111537
0.0708034 0.123688 -0.0839584
-0.0998021 0.00985124 -0.0235731
0.0719335 0.124649 -0.0816065
0.124216 -0.0343493 -0.0326916
0.0756953 0.131738 -0.0414103
0.0439257 0.141129 -0.000934353
0.118574 -0.00957531 -0.0552377
-0.00813157 0.181917 -0.116941
-0.0514402 0.0601898 -0.0261827
-0.0271825 -0.0996264 -0.00412556
0.0713965 0.132639 -0.0193655
-0.0234657 0.209305 -0.0489798
-0.0604363 0.142614 -0.00641024
0.0446542 0.0582869 -0.0594011
-0.00640301 0.205359 -0.000107321
0.0386308 0.0558973 -0.0670432
-0.111104 -0.0658706 -0.0277066
0.00347244 0.0371981 -0.000403502
0.11186 0.00032828 -0.0351197
-0.0458293 0.09826 -0.141151
0.0447735 0.107761 -0.126791
0.101532 0.00167846 0.0348946
0.0571885 -0.0222941 -0.115178
0.051534 0.138467 -0.00320755
0.056764 0.0481046 0.116675
-0.00807313 0.0223712 0.143306
-0.0881332 -0.0111967 0.0804662
0.0750306 0.124485 -0.0618724
0.101257 0.00564451 -0.0367182
-0.0618651 -0.0911418 0.0180335
-0.110467 0.0031712 -0.0239931
-0.116335 0.0038027 0.00866673
-0.0733529 0.139379 -0.0405414
-0.0349377 -0.101806 -0.0312557
0.120955 -0.00920012 -0.0480568
-0.072567 0.140123 -0.0363427
0.104869 7.90897e-05 0.0329478
0.003281 -0.0528776 -0.133439
-0.0652067 0.141119 -0.0226399
-0.0171556 0.206169 -0.0190433
0.0373416 -0.027752 -0.128862
0.106717 -0.0750873 -0.0236937
-0.00534514 0.197451 0.00995336
-0.0920562 -0.0750991 -0.0300759
-0.0640664 0.183399 -0.0720703
0.12067 -0.00282332 -0.0181487
0.000293497 0.134608 0.0360836
0.0676403 -0.061838 0.0983675
0.0761112 0.131625 -0.046079
-0.0527633 0.0247378 -0.0867287
0.066563 0.136758 -0.0179352
0.074489 0.12418 -0.0569147
-0.125586 -0.0261162 -0.045311
0.0489452 0.111622 -0.118162
0.120554 -0.00886362 -0.0493163
0.106099 0.00276983 -0.0358801
0.122112 -0.0050804 -0.0266868
0.046647 0.109939 -0.120022
0.0429129 0.099783 -0.135396
-0.106013 -0.0674811 -0.026881
0.0358863 0.127196 -0.128636
-0.00534713 0.204001 0.00239733
0.0433554 0.10413 -0.13656
-0.0529934 0.0584824 -0.0365091
0.0747808 0.124332 -0.0579643
0.0432658 0.100074 -0.138823
0.00224182 0.0479734 0.0791918
-0.0518463 -0.0954329 -0.0275786
0.0376567 0.056453 -0.0686566
0.00176681 0.0469019 0.077844
0.0173183 0.0520323 -0.0867825
-0.0370773 0.148611 0.0230734
0.0196847 0.0524005 -0.0861731
-0.0182236 0.109357 -0.187501
-0.00545139 0.0518568 -0.0885881
0.0266607 0.105959 -0.173853
-0.0659998 -0.0883685 -0.0294995
-0.00774076 0.0913913 0.104392
-0.00790383 0.187585 -0.111842
-0.0763279 0.026069 0.0423949
-0.0151275 -0.0326061 -0.124396
0.00658136 0.13687 -0.158085
-0.0672844 0.0277437 -0.0266217
-0.0461737 0.0383768 -0.0786847
0.000107149 -0.0620783 -0.128461
0.0224066 0.152271 0.0314968
0.00186625 0.0492303 0.08132
0.0475855 0.149068 -0.10941
-0.0633593 0.188932 -0.0459695
-0.0414975 0.117595 -0.126464
0.0421727 0.132474 -0.115757
0.0996045 -0.0787407 -0.0259888
0.119792 -0.0574254 -0.0272515
0.0275481 0.14674 0.0311179
0.0425873 0.141208 0.000330911
0.120826 -0.0522866 -0.02782
0.0162717 0.0516182 -0.0870099
-0.0174629 -0.100859 -0.0248921
-0.0483688 0.182516 -0.0107487
0.0357426 0.0552802 -0.0737667
0.0747097 0.123641 -0.0463
-0.0211435 -0.100636 -0.0263126
0.00229215 0.0413486 -0.0104312
-0.000683843 0.021832 -0.124714
0.0271033 0.132443 -0.130785
-0.0450957 0.0396761 -0.0815073
-0.0618763 0.143128 -0.0120642
0.0429697 0.102059 -0.130099
-0.046971 0.0587862 -0.0632858
-0.00634293 0.135602 -0.13392
0.12246 -0.0396323 -0.0309364
0.0413884 0.105185 -0.154983
-0.0915236 -0.0308924 -0.0941231
0.0996937 0.00704107 -0.0366274
-0.0426854 0.0590827 -0.0720742
0.0944712 -0.0810962 -0.018385
-0.0634251 -0.0312772 -0.119791
0.114196 -0.00527533 -0.00750056
-0.104053 0.00786476 -0.0228209
0.00216705 0.0366374 0.059697
0.1003 0.00648693 -0.0365903
-0.0297667 0.126446 -0.156969
-0.0607358 0.114943 -0.0984799
0.0415361 0.104102 -0.151578
-0.0997134 -0.0690303 -0.029058
-0.0133323 0.0907334 0.136703
-0.0631518 0.187214 -0.0555026
0.0346618 0.128248 -0.128796
-0.0477354 0.185262 -0.00767075
0.0424018 0.12379 -0.119723
0.047508 0.149907 -0.109356
-0.056736 0.174339 -0.100234
0.0964882 0.00995074 -0.0373361
-0.000292587 0.0601259 0.0923304
0.0248926 0.0628105 0.147773
0.0414836 0.100665 -0.145722
-0.00383205 0.151714 0.0294255
-0.0480161 0.0999249 -0.114707
-0.0709691 -0.0851681 0.0351556
0.0741282 0.123747 -0.0558959
-0.045595 0.0968802 -0.133728
0.10185 -0.0777651 -0.0244853
0.0610457 0.11742 -0.102015
0.102378 -0.07807 -0.0256074
0.0433225 0.103285 -0.148956
0.0056004 0.0354661 0.0319247
0.0731357 -0.0657597 0.0874627
-0.00781932 0.196965 -0.10512
-0.0733825 0.131019 -0.0684094
0.0582429 0.167143 -0.0929326
-0.0239471 -0.0998781 -0.0204545
-0.0736484 0.131824 -0.0672067
-0.0345047 0.179818 0.008769
0.0110098 0.0526355 -0.0892613
0.0959778 0.0110805 0.0600799
-0.00813449 0.185802 -0.11347
0.0120839 0.12076 0.0266637
0.00327246 0.0370517 0.00649834
-0.00590501 0.164447 -0.130639
0.101777 -0.0780154 -0.0249522
-0.0419811 0.0936898 -0.11634
-0.0555087 0.0377552 -0.030033
-0.0984419 -0.0686191 -0.0296707
-0.00850421 0.183864 -0.115138
-0.0557409 0.0370504 -0.0297904
0.0471632 0.11028 -0.119559
-0.00907738 0.0180366 0.144116
-0.0426648 0.0937621 -0.119361
-0.0466222 0.104099 -0.12466
-0.0917564 -0.0251382 0.0976128
0.0571494 0.180209 -0.0340517
0.0629201 -0.052616 0.111889
-0.0432478 0.0643856 0.136787
0.0267873 0.132607 -0.130733
-0.0414908 0.106894 -0.127626
0.0320146 0.0560007 -0.00691524
0.0427883 0.0992602 -0.133776
-0.0526449 0.0594649 -0.0303568
-0.0618515 0.179021 -0.0881821
0.118798 -0.00447091 -0.0137648
-0.00673029 0.0365487 0.153165
-0.0214129 -0.0166292 0.144248
-0.0936118 -0.0477067 0.0774649
-0.0217061 0.129724 -0.135141
0.0276342 0.0544041 0.146717
-0.0308018 0.049338 -0.0860638
0.015635 0.0519053 -0.0874473
-0.0266491 -0.0999227 -0.00880988
0.00759438 0.054152 -0.0890958
0.0552042 -0.0400558 0.129787
-0.0435318 0.0378415 0.0724823
0.00592204 0.0360078 0.0301772
-0.00206821 0.153979 0.0215658
-0.0421495 0.107884 -0.156763
-0.0331659 0.0553483 -0.0106791
-0.118397 -0.0312447 -0.0184416
-0.0541073 0.169133 -0.104865
-0.0417076 0.117723 -0.125796
-0.0411404 0.118454 -0.126904
-0.0444823 0.0373019 0.0704991
0.0685923 0.121775 -0.0891589
0.0587401 -0.0956232 -0.0227736
0.0582932 0.042801 -0.0435915
0.00773185 0.111904 0.0319226
0.0893953 -0.081725 0.0175044
-0.0683761 0.0378108 0.132182
0.0863985 -0.0816992 0.0248134
0.00136987 0.150382 0.029167
-0.0457033 0.0985893 -0.147451
-0.0376683 0.111515 -0.124742
-0.0397609 0.10271 -0.163882
-0.0243902 -0.10024 -0.027649
-0.0137337 0.0519324 -0.0878367
-0.115396 -0.0229432 -0.025464
-0.0360765 -0.0305143 -0.119611
0.121899 -0.00692217 -0.0388375
-0.122304 -0.0279824 -0.0106311
-0.0367886 -0.101595 -0.030217
-0.0626039 -0.0312259 -0.120177
-0.0333499 0.12151 -0.156629
0.0882913 0.0176338 0.0750294
-0.00432152 0.146367 -0.135948
-0.00934271 0.113187 -0.187851
-0.0475358 0.035466 0.0663826
-0.00607412 0.0841112 0.101352
-0.0421294 0.0940656 -0.115168
0.0473389 0.110461 -0.11949
-0.0687119 0.00293661 -0.111537
0.00572246 0.00507148 -0.132269
0.00283521 0.0116751 -0.129237
-0.0332781 0.107084 -0.174072
-0.0119112 0.112341 -0.187952
-0.0786443 -0.0120338 -0.116102
-0.0703882 -0.0858519 0.0336335
-0.123062 -0.0280376 -0.00659275
0.056516 0.137017 -0.0100066
-0.124867 -0.0269139 -0.0421697
-0.0788038 -0.0125687 -0.110314
-0.0693324 -0.0867906 0.0319243
-0.0795618 -0.0151258 -0.117204
0.0526577 -0.0145501 0.14038
0.0752602 0.134813 -0.0300936
-0.10945 0.0035858 -0.0226796
0.0141365 -0.0306658 -0.13585
-0.12202 -0.028292 -0.0117632
-0.0913493 -0.0185088 0.1017
0.00152708 0.0409997 0.0675346
0.0317221 0.14487 0.0143199
0.0402827 0.103033 -0.153178
-0.118762 0.000653338 0.00480113
-0.105467 -0.0291182 -0.0857913
0.0402798 0.0569797 -0.0165299
-0.0407298 0.0483078 -0.0754909
0.041852 0.0566781 -0.0189885
0.00221334 0.0413368 -0.0102742
0.00325207 0.0372782 0.00766097
0.0434968 0.102041 -0.127405
0.00281855 -0.0508375 -0.133656
-0.0531197 0.0421175 -0.0297552
0.0459696 0.140614 -0.0030525
0.0447204 0.112173 -0.126591
0.0734887 0.125519 -0.0717196
0.00158933 0.0543524 -0.00736092
0.0326309 0.0562695 -0.00848539
0.0346178 0.0565849 -0.0112246
0.0730282 0.125486 -0.0753513
-0.0695028 -0.0306358 -0.113357
0.00180605 0.0549941 -0.00579252
-0.0393667 0.115561 -0.156272
-0.123475 -0.0276549 0.00787667
-0.0437935 0.148017 0.0189061
0.106753 0.00278619 -0.0357151
0.000340913 0.056085 0.0903254
-0.115223 -0.014351 -0.0227071
0.0212128 0.0555872 0.00576245
-0.0728587 -0.0841926 0.0385179
-0.0414686 0.109942 -0.155908
-0.0438701 0.104176 -0.129132
0.00678098 0.150244 0.0214346
0.0222812 -0.0287559 -0.134021
0.11363 -0.00593068 -0.00585067
0.0543677 0.115308 -0.110292
-0.0459248 0.0383764 -0.0821685
0.0502736 -0.00548032 0.142665
0.0390957 0.169609 0.0155297
0.0592008 0.0415249 -0.0430452
-0.00391068 0.0765659 0.0990864
-0.0457946 0.0393252 -0.0783134
-0.0742867 0.0232799 -0.0250218
-0.0776123 -0.0104497 -0.109076
-0.0528831 0.0431145 -0.0295828
0.0658193 0.120366 -0.0946528
-0.0406658 0.147846 -0.126239
-0.0352779 0.148863 0.02382
0.00524973 -0.0155308 -0.135573
-0.0395124 0.146581 -0.12717
-0.0828199 0.00791589 0.107549
0.040269 0.102696 -0.151868
-0.0375608 -0.0895326 0.0605208
0.0421295 0.12174 -0.127395
-0.000755858 0.064645 0.0930875
0.036925 0.126508 -0.128629
0.0309859 -0.0288077 -0.130449
0.119683 -0.059844 -0.025904
0.00189447 0.0524953 -0.00965605
-0.0592319 0.0127781 -0.100479
-0.0773098 -0.0835454 -0.0310846
0.0224214 0.0528766 -0.0854261
-0.0100475 0.152933 0.0278998
-0.107919 0.00869448 0.0193101
-0.00320693 0.113512 -0.189153
-0.0602369 0.115199 -0.0986261
-0.0409739 0.0506919 0.0825421
0.0498722 0.113257 -0.117586
0.0551828 -0.0270846 0.136423
-0.0586598 0.11279 -0.101191
-0.0375375 -0.0984002 -0.0155678
-0.056746 0.111203 -0.103807
-0.107174 0.00557662 -0.023572
-0.0296629 0.106483 -0.176474
-0.0560705 0.110606 -0.104592
-0.0862049 -0.0302989 -0.0984264
0.0351004 0.0554825 -0.075145
-0.0399426 0.0533373 -0.0731031
-0.0472894 0.0970938 -0.123827
-0.0459431 0.0586393 -0.0655571
0.0522448 0.138257 -0.00850749
0.0758613 0.0142426 -0.0405472
0.0932995 -0.0803756 -0.00751968
-0.0267185 -0.0461883 0.133026
-0.0671262 0.0410873 0.132689
0.033616 0.0561386 -0.0102404
-0.0271674 -0.0488936 0.131448
-0.0496494 0.031114 -0.0865593
0.0552991 -0.0219709 0.13736
-0.00442452 0.135484 -0.155918
-0.0930965 -0.045376 0.0782175
-0.0517004 0.0262924 -0.0890951
-0.0636398 0.143345 -0.0196667
0.0511349 0.0489104 -0.0429539
-0.0253077 0.129894 -0.156134
-0.0238695 0.130389 -0.155749
0.0665468 -0.0580469 0.102844
0.00102637 -0.0330144 -0.130101
0.0175507 0.076652 0.148817
-0.0272761 0.109965 -0.181048
-0.0588025 0.146028 -0.0102284
-0.00259333 0.0299578 -0.120728
0.0427224 0.104169 -0.123467
-0.0284189 0.0522255 -0.0864884
0.0401476 0.123906 -0.127848
-0.122857 -0.0265567 0.0114774
-0.00739375 0.0950097 0.109089
-0.0262163 -0.0404624 0.135682
-0.0451174 0.095145 -0.126182
0.0906878 0.0163468 0.0732754
-0.112477 -0.0656024 -0.0267683
-0.0411927 0.100228 -0.160885
-0.0506726 0.0265804 -0.0847116
-0.0634923 -0.0943603 0.0221804
0.0499747 0.0581084 -0.0395966
-0.0408907 0.101331 -0.161663
0.00297649 -0.0457607 -0.133979
-0.0441826 0.0939465 -0.123191
-0.0134557 0.0518317 -0.0876683
-0.116974 -0.0225995 0.0351708
-0.0564083 -0.0302503 -0.124061
0.0432919 0.0999767 -0.137046
-0.0477129 0.100538 -0.114896
-0.0462057 0.105824 -0.124771
0.0711508 0.0217769 -0.0416092
-0.118396 -0.0309648 -0.0620055
-0.109664 -0.031241 -0.0803388
-0.109334 -0.0311796 -0.0806348
-0.0229208 0.21166 -0.0695056
-0.00207068 -0.101805 -0.023338
-0.00947679 0.15123 0.030053
0.0512116 0.115106 -0.115476
-0.075629 -0.00675834 -0.108633
-0.0476455 0.100178 -0.124559
-0.115829 -0.0462504 -0.0287585
-0.037698 0.112063 -0.124362
-0.00500006 0.202553 0.00465232
-0.0344105 0.1072 -0.173554
-0.0704891 -0.0306902 -0.11226
-0.0195999 0.206854 -0.0346838
-0.0437635 0.104312 -0.129201
-0.0441374 0.104122 -0.129547
-0.0313341 0.0728897 0.135573
0.0584757 0.179767 -0.0379466
0.0491949 0.112016 -0.118221
-0.027311 0.0776002 0.101707
-0.078214 -0.0118587 -0.110132
-0.0371173 0.143008 -0.128183
0.065348 0.181095 -0.0605258
-0.115922 -0.034639 -0.0288995
0.122139 -0.00497986 -0.0262834
-0.0127707 0.210458 -0.0910405
-0.0637981 0.184446 -0.0673438
-0.0307827 0.133116 -0.128377
0.0130887 0.116744 0.0251469
0.0125033 0.115675 0.024215
-0.0483611 0.0323099 -0.0815798
-0.120826 -0.00944959 -0.00547316
0.0498832 0.0597009 -0.0291983
-0.0529567 0.0581362 -0.0415968
-0.0281742 0.107453 -0.177759
-0.0862759 -0.00205112 0.0958821
-0.066741 0.123562 -0.0906538
-0.0528799 0.0581678 -0.0407344
-0.0648405 0.0241894 0.128769
-0.0528057 0.0581114 -0.0461585
0.0181881 0.0523496 -0.0867627
0.0401601 0.103463 -0.154689
-0.0531085 0.0582782 -0.0427259
0.0877864 -0.0820365 0.021198
0.0445955 0.108144 -0.127215
0.0496171 -0.00383997 0.143267
-0.0267592 0.109224 -0.181017
0.0765176 0.130394 -0.0454158
-0.0186545 0.206813 -0.0289008
-0.104908 -0.029008 -0.0868154
-0.109745 0.00299936 -0.025085
-0.0845229 0.0177719 -0.0225595
0.0511553 -0.0250298 -0.119587
-0.0922293 -0.0742239 -0.0302511
-0.00697448 0.171971 -0.125686
0.0555343 -0.0284171 0.135394
-0.00668873 0.170676 -0.126932
0.12414 -0.0348001 -0.0318003
0.0501241 0.0627893 -0.0195207
0.0137958 0.0811593 0.145777
-0.00634899 0.168754 -0.128324
0.0602386 0.0394678 -0.0431092
0.0752 0.123761 -0.0439165
0.0722736 0.0195649 -0.04148
-0.104199 -0.0677314 -0.0271755
0.0648304 0.135862 -0.0149997
0.103603 0.00419849 -0.0362714
-0.0746266 -0.0295585 -0.109049
0.0638351 0.135734 -0.0140133
-0.052075 0.0251168 -0.0900492
-0.0289627 0.177964 0.0139848
-0.0900733 -0.0785244 -0.0309403
-0.0524626 0.059545 0.137695
0.04341 0.103601 -0.147069
-0.0652891 0.141379 -0.0227128
0.0609272 0.170939 -0.0895778
-0.0507086 0.0286364 -0.08743
-0.0476863 0.09372 -0.109352
-0.0520639 0.10381 -0.109725
0.05235 0.115873 -0.113398
-0.0634679 0.186581 -0.0569904
-0.0269721 0.21002 -0.0594959
0.0439114 0.0155575 0.144959
-0.0722685 0.129101 -0.0741435
0.0104184 0.149634 0.0215552
-0.000863274 0.150463 0.0306917
-0.070967 0.128265 -0.0784366
0.00538245 -0.0319137 -0.132476
0.103452 0.000936525 0.0336009
-0.021856 0.111898 -0.186178
-0.0174889 0.207053 -0.0243815
-0.00512657 0.13582 -0.133809
-0.0681115 0.0114488 -0.10397
-0.00687821 0.134818 -0.155318
0.0553131 -0.038107 0.131133
-0.107453 -0.030078 -0.0823169
0.00501019 0.0354257 0.0339555
-0.103035 0.00843366 -0.0228513
0.121791 -0.0490377 -0.0273443
0.0492414 0.0575276 -0.0348862
-0.00972922 -0.10181 -0.0231581
-0.00475679 0.047239 0.153485
-0.0100714 -0.03248 -0.128784
-0.121637 -0.0282791 -0.019062
-0.00762805 0.0515383 -0.0884063
0.120733 -0.0541123 -0.0268165
-0.0549591 0.170583 -0.103695
0.041362 0.141329 0.00139819
-0.00670854 0.173758 -0.124186
0.120649 -0.0534754 -0.0273388
-0.109953 -0.0664137 -0.0272735
-0.0490634 0.0580101 -0.0592477
0.121585 -0.0499687 -0.027548
0.0425041 0.123577 -0.119764
0.0283649 0.131742 -0.130303
-0.109989 0.00299347 -0.0249573
0.0849144 -0.0816702 0.0298033
-0.066432 0.122473 -0.091818
0.0475486 0.110638 -0.119288
-0.0610023 0.115839 -0.0978
-0.0344204 0.0697087 0.136545
-0.105638 0.0100704 0.0217911
-0.00639589 0.0845771 0.101616
-0.0252457 0.0843612 0.105571
-0.0255871 0.0828409 0.10531
-0.00692947 0.0928573 0.104763
0.0285243 0.088289 0.124473
-0.031529 -0.100596 -0.0237749
0.0624672 -0.0516132 0.113381
0.0548394 -0.0250964 0.137324
0.0265048 0.0566374 0.000753867
0.0329585 0.0856379 0.125361
0.0247644 -0.0294196 -0.13343
0.031879 0.0867737 0.125373
-0.0326591 0.18043 0.00994891
0.0423142 0.126111 -0.118951
0.0424584 0.100392 -0.142912
-0.0113048 0.0557926 -0.0894969
0.0323468 0.105854 -0.170262
-0.0365299 0.0678166 0.136761
0.0518873 0.0585138 -0.0468627
-0.0441921 0.184735 -0.00165524
-0.0438914 0.0940323 -0.111383
-0.0892696 0.0209371 0.0358382
-0.0380091 -0.0976521 -0.0122537
0.0160392 0.0778251 0.148509
-0.0767949 -0.082652 0.0443416
0.0143286 0.1487 0.0216881
-0.0503328 -0.0961731 -0.027711
-0.0634041 -0.0944674 0.0226317
0.0425628 0.0575 -0.0190396
-0.0494261 0.0614448 0.138171
-0.0475067 0.0338589 -0.0808738
0.0227979 0.0665773 0.1489
-0.125866 -0.0266574 -0.045806
0.00485998 0.091251 0.0308111
-0.0059402 0.151169 0.0299236
0.0415651 0.122536 -0.12733
0.037184 0.0528537 -0.068954
-0.0823273 -0.029513 -0.104475
-0.0412986 0.0405651 0.0784994
0.035907 0.0548425 -0.0727729
-0.0262682 0.0803085 0.103875
-0.0267203 0.0530018 -0.0870661
0.0896124 -0.0175704 -0.0986953
0.0115945 0.122447 0.027827
-0.027435 0.0760523 0.137786
0.0386639 0.0800969 0.12499
-0.0571857 -0.030333 -0.123746
-0.000654194 0.067909 0.0941657
-0.0489354 0.0313042 -0.0820503
0.0745925 0.12331 -0.0457866
-0.00914701 -0.0322611 -0.129879
0.0485856 0.139542 -0.00503851
-0.00716375 0.0945602 0.10649
-0.0664307 -0.0916883 0.0272782
-0.00704106 0.0944856 0.106299
0.070275 -0.064473 0.0933935
-0.00693823 0.0940776 0.105829
-0.0262602 -0.0299222 -0.122349
0.0623727 0.0326002 -0.0431319
0.0513142 0.0473825 -0.0440252
0.012506 0.0986946 0.122448
-0.0870663 -0.0304246 -0.0973744
-0.0916122 -0.0155904 0.0608435
-0.0706957 0.141013 -0.0299306
0.0835665 -0.0180041 -0.102543
-0.00136598 0.0691092 0.0951443
0.0555192 0.0445572 -0.0444334
-0.000317168 0.0608613 0.0921875
0.0343376 0.0542028 -0.0772004
0.0551434 0.0450453 -0.0442801
-0.0243745 -0.0205657 0.144336
0.1201 -0.00366513 -0.016439
0.0238171 0.056183 0.00347133
-0.0242437 -0.0232007 0.143753
-0.115582 -0.00842502 -0.0218819
0.0195334 0.147206 0.0217513
-0.0641333 0.143283 -0.0212026
-0.00783816 0.114234 -0.187634
-0.0590412 0.145705 -0.010737
0.079336 0.0273042 0.0924415
0.00901373 0.0999948 0.122451
0.00948003 0.148854 0.0267735
-0.0169773 0.0550878 -0.0886888
-0.0271632 -0.0874214 0.0703528
0.00507743 -0.032257 -0.132395
-0.0638245 0.0321645 0.0487772
0.0714459 0.0340262 0.105075
-0.0741077 0.0275402 0.0418121
-0.086747 -0.00282217 0.094113
0.0476955 0.0607254 -0.0187851
-0.090719 -0.0633375 0.065353
0.00218498 0.0765235 0.0250624
-0.00640613 0.199807 0.00713311
0.0501349 -0.00694249 0.14309
-0.0397492 0.182924 0.00453841
-0.0841376 -0.0193064 -0.108063
-0.0671377 0.140325 -0.0218363
0.0532416 0.137889 -0.00516945
-0.0284414 0.0758207 0.100888
-0.00680767 -0.0320684 -0.132251
0.0400247 0.0219146 0.146157
-0.121447 -0.0286586 -0.018048
0.0731228 0.125346 -0.0744871
0.0746701 0.123862 -0.0482567
-0.0926816 -0.0267684 0.0969336
-0.0589531 0.145297 -0.0103864
-0.00188054 0.0817682 0.143831
-0.0303939 -0.0964849 0.0226284
-0.0329607 -0.0767262 0.104803
-0.00112239 0.0802346 0.144863
0.00245171 -0.0199552 -0.134427
0.0495735 0.0580097 -0.0379116
0.0963937 0.0103723 0.0574913
0.0937467 -0.0833458 -0.0280665
0.0874759 -0.0891521 -0.0273711
0.00753541 0.101587 0.033196
-0.0503731 0.0579628 -0.0563748
-0.0870548 -0.070695 0.058531
0.0501081 -0.00823673 0.143323
-0.0147361 0.0903187 0.136705
-0.0170928 0.0888327 0.136792
-0.0597115 0.0122188 -0.101283
-0.0552819 0.0558393 0.135515
-0.115398 -0.0115627 -0.0216022
-0.119532 -0.0231543 0.0270299
-0.0660814 0.140899 -0.0226202
-0.0796753 0.0204965 -0.023437
0.0407932 0.0585317 -0.0710148
-0.0887715 -0.0804427 -0.029257
0.0383672 0.0578796 -0.0712371
-0.106007 0.00647234 -0.0232379
-0.0405352 0.114101 -0.155281
0.0441369 0.015132 0.145084
-0.108806 -0.0307068 -0.0808883
-0.00531623 0.194658 0.0120589
0.00287092 0.140965 -0.135945
0.0471764 0.00742929 0.143493
0.0470113 0.00870758 0.143302
-0.0308334 0.049709 -0.0858355
0.0618556 0.179587 -0.0544479
-0.019149 -0.100538 -0.0261107
-0.0839901 0.00168699 0.116867
0.0817157 -0.0815191 0.038086
-0.061592 0.0454141 0.133251
0.0526457 0.158644 -0.102671
-0.125491 -0.0273191 -0.0488333
-0.0054632 0.201222 0.00605346
-0.0843455 -0.0201275 -0.107927
-0.0848034 0.0241034 0.0379486
-0.032732 -0.0830058 0.0922115
-0.0555681 0.0234887 -0.0886514
-0.0253783 -0.100729 -0.0266649
0.06957 0.134613 -0.018123
-0.107351 -0.0670436 -0.0268932
-0.0715038 0.00583052 -0.106743
0.0509853 0.048599 -0.0433596
0.00459242 0.0865708 0.0298169
0.0458931 0.0601241 -0.018319
-0.0478088 0.0331917 -0.0812294
-0.0596154 0.177069 -0.094632
-0.0228117 -0.100461 -0.0269552
0.0673178 -0.093537 -0.0243066
-0.123221 -0.0289686 -0.0540815
0.0437738 0.0583593 -0.0193894
-0.0713827 -0.085778 -0.030161
-0.116031 -0.0375596 -0.0280018
-0.107291 -0.067082 -0.026495
-0.00605707 0.087724 0.102266
-0.00149121 0.0426835 -0.00849461
-0.0255825 0.150609 0.0275798
0.0603696 0.179018 -0.0498202
-0.0309421 -0.101174 -0.0237613
-0.0338355 -0.0998013 -0.0210551
-0.12356 -0.027877 -0.00247405
-0.0559746 0.054834 0.134415
-0.120585 -0.02572 0.0192367
-0.0926816 -0.0731361 -0.0309565
-0.0893329 -0.0673841 0.0616267
-0.016846 -0.100888 -0.0608617
-0.0153737 0.203243 -0.0108975
0.0974832 -0.0797274 -0.0279668
-0.0753817 -0.084111 -0.0306462
-0.120022 -0.00239647 0.000801013
-0.0024183 0.043258 -0.00810516
0.00213211 0.140925 -0.135423
-0.0837233 0.00638141 0.106042
-0.00430201 0.149994 -0.135362
-0.0633913 -0.0944173 0.0221593
-0.014859 -0.0100476 0.144469
0.0646104 -0.0220332 -0.111298
0.0216567 0.152582 0.0312625
-0.117544 -0.0224164 0.0339149
0.0459118 0.109038 -0.120273
-0.115584 0.00490457 0.0096841
0.0302628 0.0464548 0.146132
0.0353375 0.055542 -0.0754942
-0.0478666 0.159181 -0.114129
-0.0456351 0.0975655 -0.139625
-0.0969204 0.0115989 -0.0229991
0.00842939 0.140187 -0.135577
0.0428505 0.0995209 -0.134172
-0.0737833 -0.0839181 0.0402752
0.0025587 -0.0214271 -0.134294
-0.0934575 0.0136634 -0.0217014
-0.0457547 0.0961452 -0.128902
0.0433965 0.0994418 -0.133332
0.110061 -0.0038655 0.0154826
-0.00307727 0.107865 0.122112
-0.0320258 -0.0937617 0.0400478
-0.118987 0.000685315 0.00415565
-0.0831298 0.0244631 0.0393625
0.00383184 0.0377955 -0.00160306
-0.0639096 0.183916 -0.0688981
0.0434519 0.0994558 -0.133218
0.00231297 -0.0309906 -0.130264
0.0450284 0.107582 -0.121009
-0.115415 -0.0217778 -0.0247246
-0.115766 -0.0469419 -0.0287134
-0.0565897 0.0231122 -0.0890779
-0.00112808 0.0757788 0.148788
-0.00520982 0.0492736 0.153696
0.125133 -0.0318579 -0.0333827
0.0411796 0.101207 -0.147237
-0.0608708 0.11603 -0.0978329
-0.010662 0.055859 -0.0898896
-0.0513757 0.0574799 -0.0541524
0.124452 -0.0334594 -0.0326123
-0.115518 -0.0243394 -0.0257709
0.0525731 0.046555 -0.0438277
-0.115574 -0.050818 -0.0276984
0.111773 -0.00926554 -0.0772587
-0.0218666 -0.100136 -0.0359873
-0.118454 0.000817544 0.00559579
-0.0672187 -0.0877329 -0.0298795
0.0454608 0.10693 -0.127185
-0.00761627 0.0946663 0.109147
-0.0606254 0.0463816 0.13317
0.0732114 0.0182576 -0.0407444
-0.0755336 -0.00556178 -0.107846
0.0689871 -0.0628815 0.0956718
-0.00693473 0.0936038 0.105385
-0.0149002 -0.00621464 0.143124
-0.125216 -0.0270341 -0.0495798
-0.0431371 0.104865 -0.128792
-0.0962321 -0.0545088 0.0714577
0.0723135 0.132357 -0.0187095
0.0549529 0.115377 -0.109748
0.0448815 0.0592611 -0.0190233
-0.00729249 0.20678 -0.00341877
-0.0922314 -0.0138633 0.0698513
0.123869 -0.0356473 -0.0314745
-0.0935318 -0.030609 0.0937539
0.122093 -0.0031601 -0.0344878
-0.0844793 -0.0302145 -0.100848
-0.0938337 -0.0339963 0.0906696
-0.0524301 0.104702 -0.109226
-0.0111326 -0.0326694 -0.127666
-0.0889232 0.0156356 -0.0222199
0.0651431 0.0282839 -0.0429497
0.0149659 0.0519455 -0.0878482
0.071227 0.136075 -0.0227084
0.0640205 0.181297 -0.0616288
-0.0273841 -0.0856676 0.0614808
-0.0931723 -0.0381954 0.0876686
-0.0521186 -0.0886111 0.00760941
-0.0418431 0.108785 -0.156625
-0.00607851 0.0870261 0.102189
0.0496333 0.0599442 -0.0260669
0.0930503 0.014189 0.0666119
-0.0928326 -0.041383 0.0815941
-0.0857443 0.0171498 -0.0224728
-0.0529586 0.0223425 -0.0919018
-0.0468978 0.063075 0.137999
-0.00647552 0.0942168 0.105533
0.0228264 0.152454 0.0314408
0.0369147 0.0567081 -0.0706914
0.0255805 0.133351 -0.131186
-0.120021 -0.00676249 -0.00315178
-0.0211664 -0.0152375 0.144223
0.075346 0.134413 -0.0326757
0.00204992 0.0474203 0.0785249
-0.0922938 -0.0160983 0.0590615
-0.0935892 -0.0359371 0.0894394
-0.0400082 0.0556263 0.0844626
-0.0906674 -0.0125804 0.104909
0.0662854 0.134726 -0.0134815
-0.109186 0.00806145 0.0179045
-0.00517094 0.151184 0.0300393
-0.119994 -0.00519148 -0.00160996
-0.0522505 0.0332971 0.0614157
-0.0340117 0.137744 -0.128036
-0.115313 -0.0579721 -0.028428
-0.0936059 -0.0300977 0.0966073
0.0686689 0.13612 -0.0187281
0.0679411 0.121333 -0.0905742
0.0801694 -0.0202753 -0.103708
-0.0557271 0.0337514 0.0565746
-0.068466 0.126764 -0.0849544
0.0297233 0.130815 -0.130067
-0.00255983 0.151504 0.0301661
-0.0318207 -0.0860563 0.0842148
-0.0537567 -0.0945107 -0.0276695
-0.115261 -0.0189473 -0.0235914
0.0549948 -0.0222729 -0.116531
-0.00247676 0.0740946 0.0972433
-0.0586156 0.143782 -0.0020339
0.0408971 0.101981 -0.148852
0.00305951 0.0368935 0.00304466
0.0496408 0.139256 -0.0060476
-0.0700052 -0.0863976 -0.0302061
-0.0114973 0.016003 0.143506
-0.0207286 -0.0125362 0.144592
-0.030546 -0.0957847 0.0259504
-0.00115945 0.0880402 0.125416
0.0454864 0.108421 -0.120481
-0.0623969 0.0094176 -0.105017
-0.0394105 -0.0968407 -0.00922537
0.0595736 -0.0234724 -0.114013
-0.0569901 0.033764 0.0553026
-0.0847706 0.00017775 0.115736
0.100116 0.00345051 0.0386984
0.0499205 -0.00757573 0.143456
-0.0527784 0.0231122 -0.0911712
-0.00160648 0.0724443 0.0961489
-0.0557724 0.0172088 -0.0956622
-0.00971781 -0.0982713 -0.0926509
-0.0332871 -0.0920704 0.0504893
-0.0059251 0.134974 -0.155795
-0.0335801 -0.0914164 0.0534814
0.0371888 0.0520309 -0.0719273
0.0712521 -0.072297 0.0833325
-0.0909707 -0.0629746 0.0654202
0.0752164 0.124536 -0.0440431
-0.120013 -0.00449307 -0.000927538
0.00257217 0.0365836 0.058257
-0.0351251 -0.090808 0.0561819
0.0560061 -0.0407518 0.128165
0.0627135 0.0319508 -0.0430373
0.048812 0.00227527 0.14254
0.110658 -0.00515231 0.0106409
-0.00629906 0.0862363 0.102134
-0.0191398 0.110067 -0.187459
0.0486763 -0.00043609 0.143405
0.00207921 0.0177091 -0.125901
-0.0127759 -0.00961053 0.140629
-0.0417171 0.0393666 0.0764517
-0.0411394 0.118907 -0.126674
-0.0385727 -0.0973456 -0.0107131
-0.0691749 0.0266376 -0.0257958
-0.073676 0.138381 -0.0450106
-0.0282461 -0.0586492 0.125297
-0.0113007 0.00691753 0.143679
-0.057876 0.0504696 0.134732
-0.019126 -0.0100587 0.145107
-0.021997 -0.100028 -0.0323288
-0.0165279 -0.0325498 -0.123454
-0.0900236 -0.0120155 0.0756732
-0.0605783 0.0331774 0.0521104
-0.0774897 -0.0819681 0.0446364
0.0697427 0.122655 -0.0868472
0.0644801 -0.0536157 0.108779
-0.00486114 0.192985 0.0135478
-0.0743967 0.0128118 0.117346
-0.0628821 0.188119 -0.0539446
0.016958 0.148241 0.0217891
0.01335 0.0550789 0.00609477
-0.0654407 0.0227355 0.127415
-0.0954258 0.0125709 -0.0222884
-0.0394286 0.0577192 -0.0775783
0.0146732 0.112353 -0.183062
-0.0668219 0.0207351 0.125374
0.00575724 -0.013264 -0.135837
0.117292 -0.00906118 -0.0578842
0.0434574 0.104859 -0.140211
-0.0893925 -0.0669559 0.061973
0.0434514 0.104857 -0.138906
-0.122768 -0.0281151 -0.00793082
-0.0451622 0.0982765 -0.149262
-0.0036226 0.151362 0.0294812
0.0713465 0.1241 -0.0830066
0.00427773 0.0101327 -0.129761
0.0425105 0.123366 -0.120761
0.112236 -0.00612287 0.00213795
-0.00691823 0.177378 -0.12079
-0.0556142 -0.0302657 -0.124347
0.0435509 0.10354 -0.133919
-0.115669 -0.0479472 -0.0281316
0.0551522 -0.0442544 0.127664
0.109974 0.00129096 -0.0351216
0.0178773 0.0553203 0.00637714
-0.0322111 0.135595 -0.128232
0.00417312 0.0806775 0.0275781
-0.0903667 -0.0308566 -0.0946026
-0.00700427 -0.0954335 -0.0975604
-0.0479065 -0.0305077 -0.12505
-0.00163273 0.0838621 0.141786
-0.0460704 0.157654 -0.117
-0.00639952 0.0944549 0.105584
0.0427174 0.104156 -0.123751
-0.0594269 0.145389 -0.0110913
-0.00805759 -0.0970669 -0.0953938
-0.0227397 -0.0180019 0.144253
-0.0943352 -0.0475509 0.074498
-0.052918 0.105483 -0.108695
-0.0105957 -0.0984575 -0.0872266
0.00876389 -0.0312258 -0.134957
-0.0796611 -0.0132297 -0.110229
-0.11558 -0.0530074 -0.0278347
-0.12152 -0.0116156 -0.00727513
-0.115579 -0.0263525 -0.0266345
-0.0414337 0.117777 -0.126634
-0.0855218 0.000470822 0.0990017
-0.0284862 -0.10079 -0.0320352
0.0413728 0.0769286 0.125072
-0.0805613 -0.0831757 -0.0309228
-0.0524739 0.166691 -0.107378
-0.116079 -0.0420447 -0.0279764
-0.115915 -0.0436424 -0.0280248
-0.0231017 -0.100246 -0.0289345
0.00126992 0.113633 -0.189533
0.0178355 -0.100904 -0.0227132
-0.11601 -0.0394624 -0.0283083
0.0429174 0.0997584 -0.13477
-0.118455 -0.0311266 -0.0191662
0.0710992 -0.0722252 0.0843124
-0.0631084 0.0308369 -0.0271267
-0.121446 -0.0286381 -0.0186477
0.0428588 0.0166096 0.14575
0.0420674 0.132128 -0.11595
-0.112735 -0.0302526 -0.0736161
0.00197213 0.0424373 0.0691592
0.0727595 -0.0668861 0.0871107
-0.113356 -0.0651097 -0.0275738
-0.115249 -0.0156929 -0.0231716
