ply
format ascii 1.0
element vertex 795
property float x
property float y
property float z
end_header
0.165413 1.10153 -0.409275
0.147455 1.05932 -0.360945
0.0683895 1.00402 -0.305188
0.101059 1.0196 -0.304131
0.257166 1.08057 -0.299424
0.268531 1.11525 -0.298501
0.269157 1.11872 -0.299091
0.167481 1.03386 -0.297613
0.226075 1.0562 -0.308224
0.166122 1.09517 -0.402029
0.178763 1.039 -0.299185
0.0765826 1.00519 -0.298571
0.0768039 1.00513 -0.29711
0.0831768 1.00483 -0.296446
0.0687572 1.00463 -0.300123
0.0747992 1.00648 -0.304884
0.0818168 1.00534 -0.292002
0.0794405 1.00467 -0.293727
0.0745775 1.00712 -0.308267
0.0687366 1.00589 -0.296017
0.155254 1.06577 -0.385852
0.0714775 1.00997 -0.318707
0.14491 1.00735 -0.222959
0.22278 1.13244 -0.157327
0.223914 1.13238 -0.159316
0.223205 1.13177 -0.159942
0.111462 0.988107 -0.262668
0.221711 1.12891 -0.15823
0.0736383 0.998255 -0.267886
0.124307 1.0221 -0.29287
0.0692976 1.01378 -0.289583
0.266213 1.10113 -0.298284
0.237079 1.13613 -0.17439
0.265473 1.18616 -0.17747
0.210439 1.25122 -0.145573
0.202363 1.04998 -0.300187
0.191245 1.28364 -0.151907
0.236429 1.28813 -0.247041
0.216584 1.11453 -0.156928
0.275691 1.12449 -0.296654
0.0773652 1.32701 -0.152825
0.131753 1.34731 -0.174399
0.115659 1.35379 -0.181802
0.118059 1.3645 -0.196449
0.110024 1.35446 -0.183582
0.12108 1.35243 -0.179915
0.0743026 1.32436 -0.149846
0.124382 1.36361 -0.202067
0.198818 1.27128 -0.148339
0.242104 1.28208 -0.243796
0.0827428 1.00549 -0.294847
0.220895 1.30084 -0.258074
0.194781 1.27766 -0.149846
0.170311 1.33817 -0.259463
0.232058 1.18133 -0.376942
0.229759 1.18009 -0.378588
0.253301 1.07685 -0.299105
0.0903076 1.01418 -0.296402
0.189809 1.1484 -0.412717
0.202625 1.2433 -0.398998
0.196622 1.29009 -0.342333
0.255288 1.26551 -0.233934
0.20144 1.21118 -0.408962
0.272107 1.16394 -0.317825
0.191328 1.16272 -0.417076
0.272704 1.13696 -0.301026
0.232013 1.18784 -0.373367
0.228669 1.12968 -0.166625
0.18949 1.15279 -0.414355
0.173364 1.11842 -0.410128
0.189948 1.15829 -0.416369
0.130221 1.36259 -0.209203
0.104015 1.36132 -0.337614
0.19504 1.30439 -0.320827
0.211073 1.18355 -0.396688
0.0140941 1.2343 -0.424999
0.267493 1.2142 -0.196497
0.0647209 1.21282 -0.439699
0.128283 1.22405 -0.444761
0.172086 1.11381 -0.408135
0.166318 1.08858 -0.394193
0.148308 1.20566 -0.442403
-0.0361274 1.30296 -0.357351
0.137684 1.35992 -0.216302
-0.0740205 1.2139 -0.352072
-0.0512433 1.29236 -0.360954
-0.0476765 1.29518 -0.360557
0.0292265 1.24052 -0.428285
-0.0504615 1.27583 -0.323271
0.0963929 1.33787 -0.190419
0.26841 1.10756 -0.298088
0.270055 1.10991 -0.296566
0.0816131 1.33006 -0.159226
0.0621239 1.30873 -0.132211
0.159702 1.31383 -0.168407
0.0676166 1.316 -0.138884
0.0651376 1.31407 -0.137003
0.0499899 1.34676 -0.201653
0.0542989 1.29366 -0.123904
-0.0410834 1.31236 -0.303029
-0.0365669 1.23754 -0.395625
-0.0118845 1.34092 -0.264466
0.0655872 1.35539 -0.347607
-0.0309863 1.3057 -0.354757
-0.0444044 1.29932 -0.306281
-0.0517993 1.17514 -0.167467
0.0426365 1.27077 -0.11552
0.00463179 1.17981 -0.093188
-0.0590113 1.26107 -0.331962
0.00432651 1.1767 -0.0935249
-0.0114963 1.15414 -0.118213
0.0147508 1.20477 -0.0927471
-0.0697469 1.23681 -0.35153
-0.0700315 1.2378 -0.350012
-0.06237 1.25148 -0.341552
-0.0609738 1.23426 -0.359349
0.134305 1.21654 -0.444462
-0.0580004 1.28526 -0.362491
0.205114 1.07956 -0.169915
-0.0612242 1.27922 -0.364162
-0.0618664 1.27659 -0.364973
0.0569474 1.23513 -0.436481
0.0561737 1.23103 -0.431294
0.0118866 1.23309 -0.423991
0.057404 1.23202 -0.43415
-0.0730128 1.14689 -0.198861
-0.0737649 1.15272 -0.197496
-0.0336708 1.32357 -0.291256
-0.0512863 1.27398 -0.323829
0.0737165 1.23185 -0.440079
0.0655663 1.21091 -0.439146
-0.0747185 1.18473 -0.354945
-0.0154858 1.3381 -0.270251
-0.0426568 1.1675 -0.155305
0.142324 1.21359 -0.444203
0.00998255 1.13942 -0.119052
0.0166022 1.13461 -0.117091
-0.0058471 1.14515 -0.125949
0.00362044 1.14102 -0.119703
0.26635 1.16826 -0.329445
-0.0279807 1.15981 -0.138594
0.00751264 1.18822 -0.0924028
0.00285665 1.14241 -0.120106
0.0657023 1.12434 -0.111548
-0.0681202 1.14001 -0.194432
-0.056214 1.10414 -0.344187
0.00323251 1.23066 -0.414805
-0.0278823 1.32943 -0.284782
-0.000962138 1.11609 -0.130826
0.0258504 1.13172 -0.116475
-0.0705297 1.1205 -0.208177
0.195024 1.27792 -0.364018
0.136309 1.0003 -0.235569
0.0814995 1.00487 -0.291405
0.024933 1.23175 -0.0996256
0.00305206 1.0575 -0.150342
0.0469867 1.00667 -0.207166
-0.037137 1.16507 -0.148818
0.156998 1.01866 -0.208996
0.12138 0.992094 -0.25286
0.117136 0.990084 -0.258276
0.266641 1.20124 -0.186439
0.0503053 1.00284 -0.220576
0.187353 1.29069 -0.154023
-0.0442014 1.29779 -0.360375
0.0485558 1.00586 -0.21136
-0.0240698 1.30926 -0.353378
0.0383851 1.00377 -0.241675
0.0283907 1.34739 -0.215862
0.0211246 1.34904 -0.222288
-0.020071 1.04366 -0.229933
0.0145297 1.01244 -0.233747
-0.00460824 1.02156 -0.229055
-0.00707328 1.34374 -0.258853
0.0429529 0.993728 -0.296339
0.263199 1.09106 -0.298291
0.221024 1.1273 -0.158155
-0.0639439 1.23003 -0.354629
0.00526863 1.18285 -0.0930828
0.0288541 0.994041 -0.302993
0.0174965 0.998691 -0.317102
0.04268 0.993605 -0.297217
0.0380622 0.994131 -0.298849
0.0408294 0.993528 -0.297936
0.0421233 0.993926 -0.295066
0.145648 1.13119 -0.123816
-0.0235318 1.04058 -0.238389
-0.0473261 1.17186 -0.161227
0.00720465 1.06525 -0.142742
0.00747389 1.06046 -0.145949
0.0314514 0.994698 -0.301262
0.1817 1.10974 -0.40119
0.259342 1.17482 -0.33986
-0.0164346 1.04295 -0.334504
-0.0074627 1.02328 -0.251803
0.136769 1.04729 -0.33953
0.0440348 1.00186 -0.245011
0.0412391 0.993987 -0.294691
0.00934878 1.00884 -0.263003
0.195869 1.27019 -0.373047
0.0462757 1.00004 -0.250811
0.0494258 0.999411 -0.252271
0.152856 1.01366 -0.216118
0.0224388 1.33224 -0.343329
0.161086 1.02344 -0.203958
0.066801 0.997364 -0.264062
0.213687 1.24339 -0.144744
0.0390507 0.993239 -0.284612
0.201999 1.13756 -0.151947
-0.0176796 1.31271 -0.352543
0.00781685 1.13984 -0.119379
-0.0155934 1.03848 -0.23154
0.217427 1.23394 -0.145291
0.191985 1.15435 -0.41424
0.0297041 1.00948 -0.253754
0.212354 1.10145 -0.160403
0.00365663 1.07818 -0.139002
0.112068 1.36472 -0.191765
0.0242061 0.998225 -0.27523
0.0697092 1.01584 -0.333755
0.0711121 1.01339 -0.328132
0.0167129 1.0028 -0.268845
0.0532944 1.00055 -0.231061
0.0477953 1.00001 -0.267792
-0.0617779 1.09617 -0.219273
0.0683873 1.0145 -0.286471
0.148732 1.02682 -0.293055
0.123677 1.03596 -0.321638
0.0997061 1.01745 -0.311505
0.246243 1.07102 -0.29928
0.0964633 1.01674 -0.301658
0.0970882 1.01459 -0.308002
0.106017 1.02274 -0.306824
0.0651982 1.04438 -0.376904
0.0621397 1.04874 -0.376933
0.177789 1.12619 -0.409382
0.22374 1.13188 -0.15913
0.199172 1.2562 -0.38863
0.221958 1.13035 -0.160237
0.172434 1.08617 -0.389811
0.150285 1.06067 -0.362509
0.22099 1.22726 -0.145708
0.180093 1.10262 -0.397554
0.252856 1.17823 -0.345714
0.256926 1.17496 -0.342806
0.169116 1.344 -0.310321
0.0542124 1.12788 -0.113702
0.26367 1.09367 -0.298142
0.0972647 1.3388 -0.192444
0.139559 1.00295 -0.229411
0.195677 1.30755 -0.311441
-0.0551753 1.28794 -0.362644
0.0187904 1.01109 -0.235856
0.0982184 1.33988 -0.194254
0.0168247 1.3526 -0.234149
0.267186 1.20843 -0.192342
-0.0508675 1.09148 -0.207963
-0.0579208 1.08783 -0.223133
0.08756 1.01154 -0.296693
-0.0445667 1.28314 -0.314637
0.215351 1.18078 -0.391821
0.186696 1.13559 -0.409031
0.196132 1.1855 -0.409123
0.198998 1.06913 -0.173676
0.0734254 1.00811 -0.312747
-0.0257591 1.05619 -0.336863
0.178262 1.03965 -0.191025
0.209262 1.08906 -0.165528
0.0700725 1.00717 -0.293291
-0.0203441 1.04829 -0.335599
0.0606127 1.13427 -0.407744
0.118576 1.02947 -0.327898
0.01293 1.00597 -0.266083
-0.05466 1.09956 -0.205386
0.0280064 0.996054 -0.277765
0.179673 1.32907 -0.276896
0.106778 1.0224 -0.317504
0.160177 1.03038 -0.294042
-0.0634693 1.27356 -0.363686
0.169228 1.08086 -0.386037
0.142242 1.35293 -0.320563
0.110789 1.0266 -0.313928
-0.0742218 1.20342 -0.353928
-0.0533754 1.29007 -0.361734
0.190792 1.13537 -0.144911
0.196987 1.1948 -0.409271
-0.0703453 1.15264 -0.351743
0.249609 1.0734 -0.298903
0.125033 0.993733 -0.248075
0.165224 1.09857 -0.407599
0.0644225 1.21232 -0.43936
0.163114 1.0773 -0.385441
0.0559414 0.999172 -0.238671
0.278689 1.1323 -0.296332
0.183811 1.13732 -0.409492
-0.00616346 1.02861 -0.331674
0.13115 0.996966 -0.242148
-0.0476989 1.07197 -0.226986
0.00365461 1.14576 -0.120627
0.0463482 1.12667 -0.114713
0.193138 1.30238 -0.326387
0.262359 1.17356 -0.171912
0.224594 1.17299 -0.147523
0.0852521 1.12383 -0.112603
-0.0653116 1.17429 -0.195506
0.22638 1.05964 -0.299497
0.086691 1.01207 -0.293355
0.1309 1.04253 -0.327752
0.0225417 1.00854 -0.239061
0.237477 1.13599 -0.175861
0.118704 1.03174 -0.314578
0.183246 1.04143 -0.298875
0.262518 1.17336 -0.334808
0.184332 1.32363 -0.284372
0.234437 1.06449 -0.300065
0.263037 1.15182 -0.222958
0.0304274 1.24504 -0.104886
0.224195 1.17912 -0.146341
-0.0400153 1.3007 -0.359824
0.230398 1.06188 -0.299664
0.070676 1.31943 -0.143345
0.0469109 1.00077 -0.24869
0.0269665 1.03024 -0.173545
0.202176 1.24858 -0.394684
0.262589 1.23782 -0.210469
0.0171432 1.04046 -0.161862
0.269754 1.16421 -0.323769
0.159192 1.06761 -0.374659
-0.0743244 1.1844 -0.214889
-0.0505621 1.07559 -0.226293
0.0445969 1.00155 -0.264776
0.202792 1.218 -0.406331
0.0206644 1.24127 -0.423669
0.0017067 1.01546 -0.257711
0.272273 1.12658 -0.299985
0.0587213 1.30246 -0.128271
0.16518 1.07698 -0.383728
-0.0209658 1.33424 -0.277058
0.273168 1.11854 -0.295639
-0.0440204 1.07844 -0.213014
0.180847 1.13112 -0.408844
0.224801 1.18678 -0.146313
0.244928 1.14714 -0.196551
0.14739 1.05927 -0.358577
0.26504 1.09731 -0.298321
0.0059483 1.22989 -0.415288
0.182728 1.11582 -0.402909
0.195114 1.1656 -0.415725
0.192948 1.16687 -0.416447
-0.0565447 1.26584 -0.329717
0.207218 1.25544 -0.146969
-0.00415688 1.31944 -0.351214
0.0670117 1.02605 -0.353298
0.267524 1.1541 -0.235996
0.272121 1.15611 -0.24713
0.199693 1.19358 -0.40805
-0.0735735 1.2202 -0.35049
-0.0439316 1.2947 -0.308735
0.176151 1.19293 -0.425845
-0.0301138 1.04945 -0.23385
0.138881 1.04966 -0.344538
-0.0739254 1.20805 -0.352841
-0.0622896 1.22771 -0.356158
0.145504 1.356 -0.22438
-0.0424009 1.06393 -0.229475
0.0985921 1.33981 -0.196466
0.0169379 1.21075 -0.0938823
0.0582709 1.12859 -0.111806
0.22903 1.12806 -0.170213
0.187937 1.31884 -0.292776
0.189825 1.18816 -0.414717
0.0249135 1.34868 -0.219353
0.00451051 1.17391 -0.0932792
0.0628375 0.998024 -0.256396
0.0525831 1.34542 -0.196578
-0.0476572 1.27937 -0.318964
0.00938509 1.01761 -0.238906
0.278463 1.15592 -0.288863
0.278531 1.15508 -0.280788
0.277637 1.17116 -0.291343
0.274557 1.14217 -0.301182
0.181055 1.13356 -0.14131
0.114114 1.02675 -0.323721
0.00886112 1.23067 -0.420289
0.21228 1.13908 -0.161434
0.187818 1.14186 -0.410575
0.0822512 1.23053 -0.442212
-0.0786956 1.22661 -0.315678
-0.00362881 1.01994 -0.254678
0.219966 1.18037 -0.387612
-0.0738078 1.17883 -0.355191
0.194739 1.29669 -0.332338
0.0330656 1.00728 -0.258538
0.0604938 1.35298 -0.34804
0.229614 1.14353 -0.176056
0.165234 1.0845 -0.390576
0.251402 1.27052 -0.237308
0.146678 1.20974 -0.443343
0.272654 1.13445 -0.3006
0.247721 1.27528 -0.240652
0.220571 1.05762 -0.300122
0.0550865 0.998732 -0.253568
0.0403297 1.34829 -0.210288
0.0720558 1.32209 -0.147263
0.0831094 1.35988 -0.342509
0.0756903 1.00559 -0.301024
0.0292929 1.33596 -0.342778
0.265754 1.19276 -0.180392
-0.0548208 1.26868 -0.329296
-0.0590195 1.25922 -0.333995
0.225494 1.29648 -0.252878
0.189825 1.05361 -0.181952
0.157229 1.34879 -0.316449
0.0608155 1.30545 -0.129971
0.213862 1.10549 -0.158966
0.165891 1.19633 -0.434402
0.13299 1.35554 -0.323553
-0.0588288 1.2603 -0.332703
0.169706 1.19381 -0.430757
0.0713713 1.0117 -0.323589
0.185493 1.1289 -0.407128
0.1737 1.03447 -0.195972
0.186155 1.0434 -0.299649
0.205597 1.31397 -0.276712
0.161356 1.19985 -0.437538
0.021203 1.03562 -0.166649
0.274248 1.16771 -0.290937
0.154127 1.20234 -0.440524
-0.0675934 1.26476 -0.360455
-0.0698314 1.23739 -0.351647
0.237913 1.14386 -0.186114
0.225127 1.19351 -0.146824
0.17029 1.10865 -0.406732
0.0875762 1.01047 -0.299244
0.230984 1.29254 -0.250099
0.167916 1.10415 -0.406566
0.119255 1.22862 -0.444084
0.210862 1.09758 -0.162041
0.149108 1.35109 -0.316318
0.174271 1.1213 -0.410778
0.0181536 1.35085 -0.228653
0.0339969 1.25352 -0.109203
0.202747 1.2372 -0.402683
0.00717405 1.34971 -0.241274
0.0134148 1.35197 -0.237233
0.00323534 1.02057 -0.239278
-0.0559471 1.23388 -0.367949
-0.0736116 1.21732 -0.35151
0.261788 1.24485 -0.216573
-0.0610671 1.25432 -0.339158
-0.0654662 1.23399 -0.351052
0.156248 1.06736 -0.387793
0.0963992 1.23057 -0.443069
-0.0687498 1.13748 -0.199715
0.155483 1.31851 -0.16806
0.0709937 1.35744 -0.347018
0.103285 1.02013 -0.314566
-0.0820431 1.20819 -0.272775
0.0445802 1.27457 -0.117085
0.0204964 1.0005 -0.272596
-0.00929058 1.14846 -0.12784
0.0364147 1.12841 -0.11496
0.110045 1.02447 -0.320484
0.18412 1.04612 -0.18679
0.0188866 1.21718 -0.0962503
0.0543072 1.34967 -0.346657
-0.0640548 1.24729 -0.345376
0.126268 1.039 -0.328168
-0.0411335 1.07665 -0.338673
-0.0453746 1.06829 -0.228324
-0.00170244 1.02262 -0.329869
0.191711 1.31368 -0.301733
-0.0786952 1.192 -0.23614
0.20313 1.22998 -0.40504
-0.0810296 1.22484 -0.308255
0.04741 1.34581 -0.343838
-0.0591936 1.11071 -0.344996
-0.0711578 1.12325 -0.206909
0.00242676 1.32282 -0.350056
0.174229 1.09131 -0.392914
-0.0243428 1.1533 -0.133893
-0.0701592 1.11792 -0.21006
0.19515 1.17193 -0.415551
0.103966 1.22986 -0.444143
0.00625835 1.0116 -0.325478
-0.0500949 1.23513 -0.377651
-0.0630084 1.22967 -0.354937
-0.0531689 1.27081 -0.325241
-0.058596 1.26241 -0.331292
0.172569 1.34209 -0.307191
0.277976 1.15364 -0.271085
0.262019 1.09082 -0.300392
0.0662924 1.00418 -0.313605
-0.05552 1.08341 -0.224518
-0.0558025 1.26693 -0.330217
0.179913 1.3016 -0.158103
0.237202 1.13718 -0.177748
0.221921 1.13056 -0.15759
-0.0573153 1.26438 -0.330204
0.273239 1.13967 -0.301361
0.0615265 1.04275 -0.372317
-0.0668532 1.13074 -0.200277
0.229249 1.12989 -0.169584
0.193931 1.15961 -0.414649
0.031929 1.24891 -0.107139
0.206286 1.05164 -0.300376
0.262335 1.08854 -0.298516
0.0203505 1.00986 -0.237568
0.14867 1.33112 -0.170733
-0.0459661 1.08411 -0.339728
0.0770361 1.1236 -0.112881
0.158086 1.13241 -0.129314
-0.0838977 1.21244 -0.284154
-0.0320319 1.16392 -0.143039
0.021637 1.22431 -0.0979491
-0.036 1.0555 -0.231522
-0.0724283 1.16723 -0.35385
0.0675014 1.01506 -0.281915
0.0738722 1.00965 -0.279536
0.260795 1.25239 -0.223495
0.132503 1.12867 -0.119263
0.0492068 1.28263 -0.119671
0.208893 1.31189 -0.273009
0.0690794 1.01828 -0.338822
-0.0293396 1.05663 -0.223208
0.0364981 1.25833 -0.111099
-0.0654649 1.27061 -0.361391
0.0620067 1.0366 -0.367499
-0.0531773 1.07959 -0.225491
0.096307 1.33605 -0.185965
0.0727725 1.02045 -0.285589
-0.0599689 1.25669 -0.337091
-0.0127679 1.15325 -0.123723
0.0306657 1.13087 -0.115461
-0.0607507 1.18316 -0.193465
0.0672193 1.0235 -0.349154
-0.0614201 1.11683 -0.346266
-0.0702454 1.23648 -0.350922
0.186176 1.14344 -0.411182
-0.0724002 1.12919 -0.204404
0.0095036 1.19298 -0.0924924
-0.00330386 1.12362 -0.132115
-0.0696154 1.11525 -0.211568
-0.0468497 1.08356 -0.211537
-0.0767681 1.18786 -0.225379
-0.0644853 1.23098 -0.354487
0.15978 1.34752 -0.315171
-0.0711143 1.1594 -0.352818
0.227274 1.18103 -0.38141
0.240252 1.18318 -0.360463
0.0672751 1.0287 -0.35697
-0.0641004 1.12428 -0.347374
-0.0625302 1.22958 -0.355234
-0.0752523 1.1914 -0.354412
0.174855 1.33396 -0.267528
0.00207201 1.08576 -0.137466
-0.054083 1.26964 -0.327162
0.0867495 1.01125 -0.295627
0.0659204 1.0042 -0.318153
0.0667707 0.997402 -0.262049
0.010876 1.04655 -0.158079
-0.0324039 1.06065 -0.221482
-0.0271262 1.04569 -0.235746
0.205109 1.18416 -0.40218
0.119728 1.12699 -0.116682
0.124983 1.22713 -0.444122
0.135064 1.04545 -0.333346
-0.0650536 1.24392 -0.349062
-0.067687 1.1458 -0.195108
-0.0393802 1.05973 -0.230841
0.0363974 1.00627 -0.259617
0.0311038 1.0247 -0.182941
0.193528 1.31859 -0.291479
0.148935 1.32039 -0.165093
0.0398693 1.26429 -0.113584
0.0954697 1.33589 -0.184297
0.10927 1.12598 -0.116148
0.215695 1.05565 -0.300446
0.257152 1.15017 -0.21202
0.0158859 1.01539 -0.245821
0.0651835 1.21232 -0.439504
0.177121 1.09644 -0.394686
-0.0658738 1.10424 -0.217136
0.0476319 1.34881 -0.20755
-0.0366526 1.31819 -0.297122
-0.0598165 1.09181 -0.221476
-0.00436467 1.13075 -0.130984
0.183373 1.29821 -0.156713
0.221171 1.14159 -0.169747
0.011381 1.00508 -0.32283
0.197576 1.04896 -0.301044
-0.0601213 1.11369 -0.202525
0.0643032 1.00547 -0.327661
0.0145593 1.00185 -0.320127
0.0346923 0.994797 -0.299985
0.00361338 1.05306 -0.154407
0.268941 1.11087 -0.297904
0.0139499 1.24452 -0.420384
0.0181718 1.01167 -0.234414
0.0121418 1.19898 -0.0924619
0.120236 1.02068 -0.292762
0.0317244 1.00567 -0.239475
0.0350686 1.33928 -0.343282
0.167371 1.30528 -0.169584
0.0872844 1.01102 -0.297381
0.189616 1.04544 -0.300423
-0.000997827 1.02301 -0.238488
-0.0165722 1.0315 -0.245063
-0.0759725 1.22778 -0.324073
0.12636 1.35705 -0.327317
0.266351 1.22212 -0.20115
0.0964326 1.3367 -0.188072
0.0517463 1.28722 -0.121147
0.0651547 1.00453 -0.322586
0.163657 1.309 -0.170272
0.0191748 1.01445 -0.24818
0.0646431 1.04091 -0.372741
0.275597 1.1533 -0.260418
-0.079175 1.19531 -0.2448
-0.0696885 1.23561 -0.351409
0.15917 1.07004 -0.385285
0.159584 1.34695 -0.242261
0.0763763 1.35869 -0.345064
-0.0137546 1.02881 -0.24699
0.0700045 1.00047 -0.269911
-0.00573087 1.02831 -0.234598
-0.0532725 1.09709 -0.342506
-0.0689366 1.11258 -0.213359
0.0640057 1.21169 -0.438839
-0.071805 1.18333 -0.20608
0.0512857 0.998288 -0.269705
0.128052 1.35056 -0.177434
-0.0803819 1.19935 -0.253895
0.067258 1.00405 -0.309827
0.0898914 1.3606 -0.339466
0.164263 1.30733 -0.159393
0.0682169 0.998449 -0.266583
-0.031589 1.06425 -0.337587
-0.0732346 1.17366 -0.354667
-0.0623919 1.22799 -0.355415
-0.0500584 1.09068 -0.340908
-0.0637435 1.09995 -0.218284
0.0170374 1.23758 -0.425841
-0.0622874 1.22886 -0.355399
0.064935 1.21258 -0.439634
0.113822 1.02891 -0.316074
0.221877 1.13055 -0.159539
0.153962 1.0643 -0.371052
-0.066993 1.15107 -0.194813
0.0668392 1.03246 -0.362026
0.158728 1.31713 -0.169699
0.0975792 1.3399 -0.198023
-0.0522268 1.27231 -0.324147
0.218668 1.11942 -0.157374
0.00119962 1.14357 -0.121413
-0.0551064 1.26811 -0.330583
0.228617 1.12809 -0.168426
-0.0402583 1.07228 -0.215544
0.0581074 0.998313 -0.244701
0.0336759 1.02033 -0.189859
0.0634594 0.997133 -0.261555
0.210157 1.09289 -0.163905
-0.0201141 1.03564 -0.241096
-0.0699659 1.23149 -0.34233
0.250845 1.14906 -0.204447
-0.0731959 1.23054 -0.332966
0.031645 1.3468 -0.211919
0.0446833 1.00927 -0.202031
0.270568 1.12281 -0.299898
0.0630124 1.3115 -0.134856
0.242231 1.06913 -0.300116
0.253359 1.07807 -0.302405
0.0155686 1.32927 -0.345579
-0.00237411 1.34548 -0.25297
0.0255147 1.2399 -0.426468
0.0564049 1.29817 -0.126087
0.0933009 1.01549 -0.299134
0.0653463 1.03669 -0.367389
0.112215 1.22936 -0.444511
0.16142 1.07281 -0.383319
0.144317 1.05541 -0.351637
0.0281166 1.23897 -0.101674
0.110965 1.36006 -0.334362
0.172586 1.30494 -0.171208
-0.0676456 1.10858 -0.215357
0.0592935 0.99838 -0.254553
-0.059431 1.25794 -0.335734
0.0405001 1.00447 -0.260919
0.0969215 1.36101 -0.337803
0.00194947 1.34746 -0.246995
0.0456552 0.992753 -0.289407
0.19557 1.28439 -0.354203
0.174327 1.03676 -0.298474
0.096535 1.12435 -0.113985
-0.0722338 1.14045 -0.199797
0.161082 1.31078 -0.168569
0.0775113 1.00485 -0.294421
0.152601 1.35182 -0.233975
0.0154644 1.23583 -0.424814
-0.0249803 1.0506 -0.22624
0.165113 1.30653 -0.169409
0.221947 1.13104 -0.158698
0.185063 1.19087 -0.41971
0.0654368 1.23365 -0.437585
0.076563 0.998594 -0.269321
0.210943 1.05364 -0.300454
-0.0632066 1.1221 -0.200586
-0.0438933 1.28665 -0.314213
-0.0842953 1.21822 -0.29389
0.155334 1.06605 -0.379529
0.236212 1.18524 -0.366012
0.155598 1.34969 -0.314703
-0.0634423 1.249 -0.343836
0.23832 1.06707 -0.300499
0.203336 1.22369 -0.405521
-0.0750777 1.19833 -0.354077
0.000881285 1.10827 -0.13119
0.0413541 1.34269 -0.34385
0.223162 1.20857 -0.144561
-0.0723216 1.13474 -0.201566
0.193346 1.05849 -0.179106
0.275442 1.16921 -0.29047
-0.0104407 1.03317 -0.233175
0.0468949 1.27849 -0.118382
-0.0327852 1.05239 -0.232965
0.117694 1.35916 -0.331456
0.0683032 1.02085 -0.344044
0.0983948 1.33976 -0.196805
0.247946 1.18188 -0.350764
-0.0699648 1.14332 -0.198622
-0.0359106 1.06978 -0.338199
-0.0629837 1.17853 -0.194123
0.0426353 0.992681 -0.287003
0.222955 1.21933 -0.145091
0.267383 1.10436 -0.298247
0.00201977 1.0173 -0.32746
-0.0671062 1.12899 -0.196204
-0.0641827 1.24672 -0.345831
0.213013 1.30792 -0.268323
-0.0432938 1.2361 -0.386439
0.138562 1.3541 -0.321249
0.176136 1.30611 -0.170855
-0.07017 1.23758 -0.350967
0.196681 1.26358 -0.381151
0.222183 1.13048 -0.160445
0.165744 1.34217 -0.250552
0.281278 1.13984 -0.296179
0.243455 1.18247 -0.357092
0.0656498 1.20882 -0.438669
0.00123408 1.10095 -0.133008
-0.0576172 1.10687 -0.203993
0.22364 1.18083 -0.384845
0.202173 1.07429 -0.172057
0.0807168 1.00425 -0.291958
0.166881 1.02867 -0.199934
0.161707 1.07258 -0.379694
0.0613749 0.997338 -0.252855
0.137537 1.34353 -0.172481
0.231164 1.1799 -0.376912
0.202712 1.31629 -0.279955
0.258483 1.08567 -0.299936
0.0692397 1.31773 -0.141103
0.164299 1.08104 -0.388077
0.264203 1.23044 -0.205589
0.216764 1.30467 -0.263418
0.194606 1.3181 -0.289936
0.148498 1.32479 -0.167406
0.0753412 0.998595 -0.267783
0.0139547 1.01547 -0.241822
0.217604 1.11679 -0.157853
0.193396 1.04753 -0.301094
0.121865 1.35847 -0.330533
0.259356 1.25918 -0.23013
0.26425 1.18015 -0.174888
0.215557 1.10942 -0.15785
0.224584 1.20038 -0.145924
0.0243141 1.01246 -0.250066
-0.0643175 1.24555 -0.347498
0.202973 1.26128 -0.147008
0.23789 1.13709 -0.178493
-0.0115578 1.31591 -0.351976
0.0706096 1.00278 -0.273564
-0.082864 1.22245 -0.30118
0.184199 1.12212 -0.40474
0.130639 1.22016 -0.444809
0.170554 1.13257 -0.135819
0.00835139 1.32595 -0.348383
0.0394213 1.01551 -0.195016
0.207679 1.08462 -0.16781
0.00550973 1.01212 -0.260368
-0.0646939 1.24481 -0.348071
-0.0113965 1.03583 -0.333072
-0.0639962 1.24636 -0.346659
-0.0358465 1.06543 -0.219249
-0.0108398 1.02641 -0.24916
