ply
format ascii 1.0
element vertex 746
property float x
property float y
property float z
end_header
0.204826 1.08122 -0.339831
0.20558 1.08194 -0.341157
0.327618 1.05165 -0.333387
0.354137 1.11309 -0.298304
0.354684 1.1098 -0.235279
0.344614 1.10482 -0.186928
0.352563 1.11669 -0.302891
0.308107 1.09089 -0.100736
0.146715 1.08867 -0.125725
0.129474 1.08618 -0.116961
0.0949373 1.07617 0.0266224
0.0869898 1.07675 0.0288173
0.188063 1.1023 -0.150501
0.274111 1.02995 -0.354193
0.319719 1.10559 -0.152618
0.209907 1.08217 -0.331287
0.126214 1.08533 -0.115524
0.32033 1.10553 -0.149616
0.135092 1.08516 -0.119727
0.18548 1.10101 -0.148806
0.193599 1.10175 -0.154482
0.313779 1.09428 -0.112908
0.195783 1.10245 -0.156397
0.199189 1.1044 -0.159869
0.122599 1.0839 -0.114191
0.198058 1.10993 -0.160589
0.197117 1.10798 -0.159585
0.314626 1.21549 -0.223123
0.202861 1.10567 -0.162893
0.356839 1.12702 -0.299649
0.347247 1.10367 -0.202552
0.349712 1.10672 -0.219738
0.354774 1.07985 -0.304996
0.348238 1.07389 -0.310474
0.338689 1.18303 -0.247681
0.190874 1.04124 0.00155497
0.202591 1.10556 -0.162488
0.353002 1.10948 -0.23204
0.357695 1.11213 -0.257611
0.0140273 1.09181 -0.117388
0.00704876 1.09271 -0.11929
0.257778 1.16153 -0.433164
0.32615 1.13223 -0.371193
0.0216345 1.20108 -0.391908
0.345127 1.10474 -0.189785
0.209825 1.08221 -0.334174
0.212536 1.0817 -0.332107
0.289774 1.02914 -0.348893
0.351866 1.11771 -0.309674
0.290318 1.02933 -0.352578
0.224557 1.06392 -0.34578
0.219937 1.07948 -0.345843
0.22916 1.0584 -0.349515
0.113758 1.16564 -0.520312
0.209231 1.08188 -0.335996
0.315936 1.13595 -0.380391
0.2968 1.14874 -0.392747
0.357975 1.10997 -0.243187
0.307584 1.1426 -0.386565
0.208914 1.08348 -0.327562
0.299095 1.2247 -0.221179
0.356293 1.10992 -0.239286
0.267383 1.1614 -0.41697
0.181539 1.16354 -0.488996
0.170839 1.16496 -0.493142
0.220653 1.07978 -0.342228
-0.00532958 1.15347 -0.556905
0.026827 1.27184 -0.414277
0.02442 1.27297 -0.422393
-0.0550672 1.17104 -0.48803
0.245411 1.16021 -0.44586
-0.0448689 1.17209 -0.493619
0.222465 1.11306 -0.18331
-0.0436576 1.17257 -0.494169
0.00181657 1.20891 -0.547515
0.00171259 1.2128 -0.54622
0.225746 1.06263 -0.345357
0.25997 1.16116 -0.431121
0.00624722 1.23258 -0.536796
-0.00321138 1.1571 -0.557349
0.321081 1.1332 -0.376463
0.21551 1.0865 -0.324451
-0.0123736 1.10918 -0.558175
0.00482211 1.12506 -0.405152
0.261665 1.16076 -0.429493
0.176674 1.04803 0.011717
-0.0416377 1.14866 -0.368832
-0.213365 1.13017 -0.349232
0.0064801 1.12788 -0.403934
-0.0281426 1.18366 -0.529857
-0.0390527 1.18094 -0.520728
-0.0357378 1.18081 -0.524654
0.255084 1.16149 -0.435585
0.0158571 1.27506 -0.495216
0.264219 1.1623 -0.418874
0.0816396 1.16773 -0.537682
0.251887 1.16111 -0.438488
0.345795 1.10362 -0.194159
0.0184798 1.27499 -0.499432
-0.0382191 1.17154 -0.498812
-0.0867524 1.13869 -0.324893
0.0157783 1.17401 -0.387948
-0.0822729 1.16763 -0.472394
-0.12375 1.16587 -0.454274
-0.112518 1.16296 -0.462657
0.153974 1.09116 -0.129574
-0.0860319 1.13175 -0.20757
0.347394 1.12048 -0.335126
-0.0884769 1.13022 -0.211468
0.208355 1.08216 -0.33637
0.319322 1.10576 -0.15599
0.0100459 1.26895 -0.454845
0.333205 1.05632 -0.327332
0.220711 1.08406 -0.341638
0.227108 1.11426 -0.193119
0.085298 1.07948 -0.107911
0.102292 1.07493 0.0241215
0.266829 1.0733 -0.0414311
0.261353 1.06986 -0.0376452
-0.217081 1.12645 -0.342684
-0.186754 1.10674 -0.119298
-0.00865763 1.15415 -0.557653
0.220603 1.07193 -0.341485
0.219159 1.07735 -0.340629
0.213353 1.0819 -0.332753
-0.0893814 1.12953 -0.215207
-0.0903032 1.13019 -0.218566
-0.089211 1.12351 -0.22637
-0.0890911 1.1243 -0.226012
-0.0892771 1.12331 -0.225748
-0.209435 1.13097 -0.355273
-0.218525 1.09928 -0.208285
-0.180813 1.12814 -0.11621
-0.233383 1.10737 -0.259254
-0.233865 1.10728 -0.258466
-0.0594712 1.05962 -0.00885671
-0.0512629 1.05829 -0.00550792
0.201118 1.14658 -0.308769
0.253085 1.21544 -0.233501
-0.0331887 1.10374 -0.145918
-0.0909677 1.17339 -0.12024
0.322743 1.0479 -0.335617
-0.0893524 1.11127 -0.17548
0.339139 1.06442 -0.317803
-0.166389 1.14612 -0.0989712
-0.146211 1.08644 -0.0736322
-0.0923969 1.17424 -0.114984
0.239763 1.04591 -0.356182
-0.0181413 1.06353 0.00729293
-0.142485 1.08274 -0.0675952
0.219821 1.11225 -0.178592
-0.15141 1.08268 -0.0617482
-0.154139 1.08556 -0.0618179
-0.159433 1.09066 -0.091327
-0.0861714 1.16549 -0.132326
-0.130178 1.07677 -0.0477536
0.0951037 1.0807 -0.108596
0.204232 1.08102 -0.338755
0.106613 1.08047 -0.10969
0.224994 1.052 -0.0184399
-0.00143147 1.0923 -0.122793
-0.0660805 1.06133 -0.0121588
-0.123138 1.17515 -0.0944601
-0.105434 1.17389 -0.0984278
-0.108787 1.17477 -0.098724
-0.133261 1.17508 -0.0978201
-0.112214 1.07201 -0.0375734
0.128284 1.0576 0.0289633
-0.149213 1.08983 -0.0789209
-0.0102246 1.09456 -0.127284
-0.205073 1.04805 -0.143231
-0.149456 0.958843 -0.183085
-0.175865 1.08963 -0.11325
-0.0798242 1.14402 -0.168658
-0.193119 1.0015 -0.152848
-0.171945 0.975249 -0.166509
-0.155516 0.962908 -0.172844
-0.21653 1.09759 -0.202256
0.319919 1.10009 -0.132468
-0.187186 1.10183 -0.122123
-0.177169 1.09045 -0.116428
-0.202718 1.05249 -0.140343
-0.13864 1.08084 -0.0598022
-0.205009 1.0412 -0.145638
-0.0909929 1.16513 -0.470809
-0.101764 1.11445 -0.213145
-0.0787524 1.06383 -0.0186515
0.215704 1.04765 -0.0139934
0.210345 1.08447 -0.326588
-0.163678 1.15697 -0.0971783
0.273556 1.07693 -0.0493986
0.179221 1.09817 -0.144174
0.316207 1.09644 -0.121188
0.301608 1.08909 -0.0866651
-0.0327311 1.1822 -0.527438
0.280001 1.08176 -0.0560232
0.132427 1.08638 -0.118399
0.189802 1.10181 -0.151658
-0.141509 1.08133 -0.0664048
-0.15242 0.960726 -0.178483
0.318238 1.09902 -0.126963
0.319352 1.10531 -0.153799
0.21682 1.11196 -0.173481
0.342062 1.12316 -0.346735
-0.121334 1.17586 -0.0962579
-0.128402 1.17462 -0.0954872
0.251021 1.21229 -0.239371
0.00699295 1.1365 -0.399352
0.00843024 1.14853 -0.394202
-0.0430321 1.17133 -0.494464
-0.0462812 1.17113 -0.493084
-0.231904 1.11214 -0.264322
-0.223033 1.12672 -0.323054
0.310462 1.09281 -0.104133
0.103711 1.07631 0.0226329
-0.11326 1.1754 -0.0989119
0.0954065 1.16854 -0.529901
0.207435 1.11736 -0.167567
-0.107739 1.12275 -0.242534
0.21264 1.11406 -0.170006
-0.0923779 1.13027 -0.221319
-0.108725 0.981867 -0.205458
0.121772 1.16587 -0.516403
0.00991803 1.27325 -0.4812
-0.0650595 1.16608 -0.482751
-0.0679864 1.14287 -0.346492
-0.125634 1.17456 -0.0944087
0.130028 1.16654 -0.512054
0.00603014 1.26902 -0.469149
-0.0224493 1.08598 -0.535117
-0.0234686 1.08918 -0.537714
0.0609418 1.07391 0.0324609
0.0772346 1.08025 -0.107743
0.0242183 1.27897 -0.50332
0.348682 1.11885 -0.32239
0.0725293 1.08088 -0.108299
0.00763579 1.1398 -0.397137
0.0637117 1.08103 -0.109313
0.354335 1.12829 -0.297791
-0.0527412 1.17054 -0.489643
-0.0213905 1.04678 -0.446362
-0.0921116 1.13621 -0.31513
-0.0256888 1.07339 -0.522161
-0.152017 1.16684 -0.0943769
0.0524155 1.16703 -0.553444
0.027652 1.27242 -0.416135
0.0356341 1.17362 -0.557948
-0.0102691 1.07584 -0.421916
0.0737078 1.16334 -0.542566
-0.136726 1.16519 -0.443117
-0.0129281 1.06703 -0.427405
-0.00033626 1.10276 -0.411294
-0.2039 1.03632 -0.146337
0.161565 1.16553 -0.496943
-0.153705 1.08435 -0.0619431
0.152656 1.16633 -0.500772
-0.029634 1.15187 -0.376748
-0.136772 1.1736 -0.0958414
0.202192 1.10505 -0.16135
-0.232388 1.11805 -0.280721
0.356483 1.12753 -0.299929
-0.160494 1.16094 -0.0977726
-0.192401 1.01034 -0.146746
0.0421739 1.17412 -0.556851
-0.151013 1.0891 -0.0810803
-0.035154 1.06147 0.000874996
0.226724 1.12368 -0.24585
-0.232922 1.11665 -0.27557
0.282396 1.02887 -0.353126
0.22199 1.08926 -0.342018
-0.234852 1.1058 -0.249492
-0.2336 1.10463 -0.243395
-0.0163377 1.05954 -0.433366
-0.229323 1.12456 -0.298969
-0.23149 1.11873 -0.286854
-0.143885 0.95817 -0.185447
0.005271 1.07042 0.0159672
-0.134231 0.958186 -0.192103
0.0802685 1.07709 0.03022
0.262915 1.22178 -0.228781
-0.140748 0.957427 -0.188041
0.358836 1.09783 -0.299417
-0.0987294 1.13338 -0.304057
-0.0192942 1.05412 -0.438339
0.194353 1.16481 -0.480036
-0.194882 1.09432 -0.153132
0.243906 1.04051 -0.357773
-0.106525 1.1215 -0.235549
0.133642 1.05463 0.028718
0.10604 1.16515 -0.523946
0.11554 1.08179 -0.111969
-0.0276121 1.04736 -0.48981
-0.15014 1.16745 -0.431226
-0.198046 1.13584 -0.376067
0.221702 1.0874 -0.340604
0.337045 1.06172 -0.321796
0.00786526 1.14971 -0.393166
0.203775 1.10626 -0.16434
-0.0991327 1.00072 -0.209564
0.203687 1.10587 -0.163591
-0.171878 1.14132 -0.103863
0.199519 1.11525 -0.158659
-0.143561 1.16555 -0.436042
-0.117185 1.17585 -0.0987141
0.255399 1.06848 -0.0346964
-0.179886 1.11794 -0.116013
0.0232877 1.26804 -0.429367
0.235278 1.05112 -0.352482
0.292435 1.22642 -0.220671
-0.0779894 1.15069 -0.157349
0.337291 1.12595 -0.357685
0.0172582 1.18375 -0.390706
-0.0811071 1.13963 -0.331905
-0.175783 1.13001 -0.110153
0.025188 1.17421 -0.556643
0.188537 1.16336 -0.485138
-0.230532 1.12115 -0.293554
0.294092 1.15256 -0.393769
-0.0423777 1.17036 -0.495302
0.29854 1.08834 -0.0815566
-0.0793213 1.16799 -0.473727
-0.0213151 1.08144 -0.532275
0.295372 1.0848 -0.0769112
0.115194 1.15544 -0.386761
-0.09167 1.1223 -0.172734
-0.124832 1.07395 -0.0444227
0.335007 1.05828 -0.324505
-0.159009 0.965498 -0.170314
-0.0720752 1.16593 -0.478525
0.126471 1.15533 -0.378881
0.0726316 1.07563 0.031523
0.206355 1.16271 -0.471872
0.200078 1.16437 -0.475866
0.00657529 1.13318 -0.401117
0.0126263 1.15649 -0.396853
-0.0275161 1.06255 0.00416759
0.229554 1.12039 -0.236634
0.203168 1.1127 -0.165184
0.332381 1.19213 -0.237763
0.353938 1.11196 -0.28416
-0.143903 1.08809 -0.0713996
0.33669 1.18603 -0.244643
-0.20265 1.13187 -0.369636
-0.0176915 1.0974 -0.549485
0.343481 1.06879 -0.313823
-0.0891283 1.12926 -0.213496
-0.0248182 1.04239 -0.486853
-0.1444 1.1683 -0.091512
-0.234411 1.10504 -0.246635
0.00688964 1.1301 -0.402772
0.0251692 1.22642 -0.393278
-0.185891 1.10548 -0.119773
-0.13797 0.957228 -0.190948
0.348168 1.10454 -0.207871
0.348123 1.12095 -0.298912
-0.139847 1.17075 -0.093107
-0.188684 0.997406 -0.151686
0.238895 1.06079 -0.0236767
0.350494 1.11853 -0.316475
0.28695 1.08211 -0.0653987
0.0273177 1.27303 -0.417686
0.0173935 1.26747 -0.430668
0.20892 1.08227 -0.335219
-0.0244972 1.09846 -0.137616
-0.193361 1.09411 -0.149151
0.221861 1.1593 -0.464128
0.0392026 1.08675 -0.112579
-0.00881339 1.06488 0.0103746
0.184191 1.14706 -0.328638
-0.0171325 1.09668 -0.132135
0.020845 1.20494 -0.391295
-0.223169 1.10462 -0.219657
0.308347 1.2197 -0.220526
0.235978 1.19996 -0.248949
0.351509 1.10896 -0.229188
0.0106716 1.14435 -0.396473
-0.143638 1.08517 -0.0704384
0.341712 1.17793 -0.2501
0.356594 1.1121 -0.266441
0.20138 1.10459 -0.160363
0.029057 1.26524 -0.409676
0.0302599 1.25488 -0.402905
0.0280699 1.25964 -0.402417
0.331744 1.13081 -0.364772
0.351718 1.11656 -0.297854
0.319418 1.10709 -0.15773
0.0222485 1.08913 -0.115592
0.247627 1.16031 -0.44283
0.260815 1.16526 -0.419198
0.0550626 1.16203 -0.55224
-0.147146 1.16637 -0.0914239
0.00859782 1.23764 -0.534466
0.00756392 1.26828 -0.46525
0.229001 1.11217 -0.201298
0.0677295 1.16164 -0.546085
0.264645 1.03397 -0.356821
-0.200189 1.09444 -0.164585
0.256495 1.03605 -0.3582
0.0609948 1.16089 -0.549608
-0.10391 1.17339 -0.0994914
0.164092 1.09344 -0.135083
0.215143 1.08564 -0.325542
0.0215415 1.19841 -0.393205
0.141084 1.0866 -0.122746
0.0893032 1.16985 -0.533381
-0.101889 1.11476 -0.214958
0.0106435 1.17636 -0.53927
0.139927 1.1521 -0.36713
0.0157304 1.26728 -0.447481
0.338309 1.12438 -0.355095
0.0259198 1.21683 -0.39484
-0.183251 1.11282 -0.116523
0.0288037 1.24987 -0.400364
-0.130423 1.17431 -0.0966383
0.0129088 1.24595 -0.529536
-0.103494 1.17306 -0.100602
0.319756 1.10563 -0.150661
-0.0766339 1.16774 -0.475196
-0.0410421 1.17052 -0.496416
0.140454 1.05208 0.0277602
0.20139 1.10493 -0.160632
-0.0379876 1.17203 -0.498598
-0.212847 1.0988 -0.193085
-0.201024 1.05597 -0.138708
-0.0389152 1.17117 -0.498211
-0.161571 1.09156 -0.0950656
-0.188732 1.0855 -0.137502
0.349008 1.10547 -0.213575
-0.0427671 1.0606 -0.00230876
-0.194274 1.07394 -0.136171
-0.14693 0.959099 -0.183583
-0.116029 1.16384 -0.460031
-0.119966 1.16504 -0.456714
0.246785 1.20867 -0.242402
-0.189639 1.09092 -0.136273
0.343923 1.1325 -0.300593
0.230712 1.1111 -0.209187
0.34474 1.12155 -0.341692
0.344041 1.1358 -0.301372
-0.00816035 1.08257 -0.418744
0.277742 1.15661 -0.408791
0.25216 1.03627 -0.358862
-0.191661 1.00986 -0.144222
-0.127057 1.07547 -0.0461985
-0.189451 1.08373 -0.136649
0.223541 1.13504 -0.261915
-0.185343 1.14725 -0.394999
0.204444 1.10643 -0.165066
-0.0871955 1.16466 -0.471693
0.171835 1.0955 -0.139071
-0.188957 1.086 -0.138391
-0.0477293 1.17033 -0.492614
0.152149 1.15134 -0.358446
-0.0935787 1.11983 -0.174696
0.00700493 1.15145 -0.391822
0.0588556 1.15748 -0.404936
-0.108249 1.12658 -0.264978
-0.107835 1.12701 -0.274097
-0.0847082 1.16643 -0.471674
0.273962 1.22582 -0.223612
0.00635001 1.12684 -0.404411
-0.00466061 1.1722 -0.555431
-0.0218613 1.18409 -0.532829
-0.0185918 1.15358 -0.382615
0.279065 1.22701 -0.222747
0.0956464 1.15922 -0.394928
0.158666 1.15356 -0.351338
-0.231852 1.10379 -0.239594
-0.170638 1.15277 -0.409242
0.321451 1.09967 -0.139522
0.191623 1.10161 -0.152943
-0.179236 1.12687 -0.116434
-0.199835 1.05894 -0.137537
-0.169583 1.08955 -0.104396
-0.0863309 1.06242 -0.0227945
-0.0198369 1.09288 -0.543943
0.225456 1.12933 -0.254046
-0.117212 1.07243 -0.0401291
-0.189357 1.1417 -0.386929
0.0033794 1.21804 -0.544295
0.204909 1.10692 -0.165987
-0.0917164 1.02018 -0.210915
0.0464782 1.0857 -0.1115
-0.0846082 1.03253 -0.211678
-0.0944797 1.17427 -0.110046
-0.20848 1.10085 -0.182204
0.346102 1.17091 -0.255237
-0.162402 1.1511 -0.0944831
0.358449 1.11129 -0.250018
-0.175531 1.15452 -0.403761
0.277393 1.02889 -0.353336
0.295068 1.03183 -0.346859
0.0156965 1.25852 -0.520541
0.31006 1.03956 -0.340551
-0.00909776 1.11845 -0.559605
0.102168 1.08183 -0.109132
0.100468 1.16614 -0.526848
-0.0935832 1.0066 -0.208662
-0.0173364 1.10087 -0.551958
-0.0376581 1.17218 -0.498751
-0.231619 1.10687 -0.261076
-0.180811 1.15233 -0.399007
-0.179834 1.12244 -0.117664
-0.0149789 1.10366 -0.554332
0.231379 1.1154 -0.217073
0.308565 1.03764 -0.342601
-0.0797876 1.16156 -0.150219
-0.0391949 1.10714 -0.152143
0.256814 1.21897 -0.230674
-0.00633323 1.11864 -0.557758
-0.235212 1.10665 -0.252351
0.0113116 1.07231 0.0190827
0.13808 1.16775 -0.507703
-0.0165744 1.18443 -0.535961
-0.0386758 1.17093 -0.498324
-0.0393995 1.17124 -0.497618
0.174924 1.09627 -0.141113
-0.200743 1.02272 -0.147308
-0.059925 1.14417 -0.354419
0.220883 1.137 -0.273516
0.205208 1.08207 -0.337283
0.232324 1.05396 -0.35231
-0.179767 1.12503 -0.117616
-0.0240092 1.06559 -0.514875
0.269084 1.22385 -0.225587
-0.150622 1.08262 -0.0615691
-0.143679 1.08723 -0.0716188
0.3479 1.11942 -0.327139
-0.10609 1.12698 -0.283235
0.167074 1.04745 0.0143018
-0.0286241 1.10032 -0.141249
-0.189176 1.08466 -0.137266
0.302495 1.14506 -0.390033
-0.0983108 1.17303 -0.104682
-0.101682 1.11487 -0.211016
0.205573 1.04295 -0.00916013
-0.197422 1.09471 -0.158528
-0.142967 1.08533 -0.0698774
-0.175144 1.13138 -0.107714
-0.137771 1.07976 -0.0603391
-0.0876081 1.16782 -0.129287
-0.173027 1.08945 -0.108992
-0.146655 1.08808 -0.0745403
-0.103455 1.11583 -0.220182
-0.185561 1.10377 -0.120118
0.00935572 1.17705 -0.540333
-0.145478 1.08588 -0.0730332
-0.147395 1.0893 -0.0757724
-0.177626 0.984559 -0.155437
-0.100159 1.16477 -0.466088
-0.0792843 1.15961 -0.15682
-0.0373966 1.17543 -0.4933
-0.104743 0.994915 -0.211128
0.304219 1.22232 -0.221046
-0.154576 1.08881 -0.0842393
-0.165301 1.09057 -0.0993432
0.0475947 1.17362 -0.555253
-0.105528 1.11776 -0.226761
0.0191394 1.26391 -0.517513
-0.21041 1.09974 -0.187175
-0.167683 0.971758 -0.166526
0.234659 1.15927 -0.457883
-0.10891 1.12523 -0.261059
-0.0892828 1.12437 -0.226431
0.0692151 1.15814 -0.402546
0.2144 1.1612 -0.467579
0.304632 1.03514 -0.344074
0.216702 1.13778 -0.285468
-0.175444 0.979289 -0.162919
-0.0067558 1.13827 -0.557876
-0.0576369 1.17057 -0.486351
-0.0067074 1.14577 -0.557749
-0.221065 1.12678 -0.328033
0.0280829 1.17274 -0.556992
-0.148251 1.08988 -0.0773335
0.353617 1.11375 -0.289934
-0.206303 1.12931 -0.361459
-0.10638 1.11948 -0.232046
-0.233043 1.11356 -0.272131
0.155688 1.04418 0.0184635
-0.168373 1.14408 -0.101639
-0.00107106 1.06828 0.0131179
-0.177266 1.12886 -0.112199
-0.226642 1.12342 -0.308904
0.340207 1.1236 -0.351129
-0.181382 1.09187 -0.123983
0.0229509 1.26903 -0.515166
-0.093066 1.06167 -0.0265224
-0.0736224 1.06372 -0.015553
-0.193277 1.09293 -0.145246
-0.104319 1.16493 -0.464314
0.34526 1.12519 -0.299815
0.231576 1.11988 -0.224853
-0.219285 1.12542 -0.334528
-0.0235725 1.05895 -0.505148
-0.198463 1.0174 -0.149025
0.336293 1.12846 -0.35916
0.160228 1.0922 -0.132975
0.0127125 1.26835 -0.449592
-0.121554 1.07335 -0.0423459
0.00113049 1.10972 -0.4096
0.311591 1.14064 -0.382845
-0.0245848 1.06953 -0.518656
-0.229152 1.10937 -0.265276
-0.157615 1.1644 -0.0979272
0.290011 1.02937 -0.346741
-0.163541 1.14818 -0.0955645
-0.00432939 1.15383 -0.390327
-0.00566891 1.08915 -0.416648
0.0227117 1.27267 -0.511224
0.156485 1.09154 -0.130845
-0.183394 0.99233 -0.15074
-0.0603957 1.16929 -0.484546
-0.195315 1.01151 -0.150622
0.355276 1.1277 -0.297492
-0.0948086 1.16522 -0.468965
-0.0882465 1.02686 -0.21283
-0.0843987 1.16351 -0.133528
-0.202303 1.09484 -0.169318
0.0098588 1.1467 -0.395429
-0.202379 1.02874 -0.145471
0.322748 1.10035 -0.144718
-0.0809872 1.16086 -0.141211
0.27035 1.03199 -0.354376
-0.220212 1.10147 -0.212729
0.354857 1.11168 -0.276081
-0.0505669 1.17015 -0.491182
0.0382201 1.07424 0.030551
0.07988 1.15804 -0.399383
-0.00579387 1.16804 -0.558237
-0.152748 1.0835 -0.0616213
0.00561857 1.22566 -0.540759
-0.20624 1.10017 -0.177253
-0.101986 1.13208 -0.294794
0.0219083 1.27687 -0.505798
0.347902 1.11979 -0.330777
-0.0833678 1.16238 -0.135936
0.00324121 1.12052 -0.406784
0.021393 1.27655 -0.501744
0.151076 1.09009 -0.128075
0.233397 1.19686 -0.252258
0.288811 1.1548 -0.398586
-0.0383447 1.17194 -0.498447
0.051007 1.17243 -0.553757
-0.0753288 1.14114 -0.338192
0.261176 1.03413 -0.357456
0.106614 1.15767 -0.391064
-0.0118614 1.1841 -0.539573
-0.0820522 1.03785 -0.210114
0.167551 1.09489 -0.136896
-0.0265061 1.03839 -0.46777
-0.228046 1.12549 -0.302502
-0.225179 1.10362 -0.223758
-0.121479 0.966855 -0.202252
-0.195912 1.07129 -0.138102
-0.157924 1.09009 -0.0887464
0.170049 1.09572 -0.138298
-0.191994 1.09133 -0.141297
-0.224813 1.1232 -0.316065
-0.193466 1.13905 -0.380968
-0.232034 1.10723 -0.260933
-0.162656 0.968143 -0.168197
0.0257136 1.15769 -0.400109
-0.221691 1.10377 -0.21618
-0.204345 1.09769 -0.173585
-0.164284 1.15892 -0.419318
-0.109382 1.12292 -0.255358
0.352672 1.07742 -0.306928
-0.193462 1.09398 -0.147573
0.0490482 1.07441 0.0317416
0.191402 1.14925 -0.319191
-0.158856 1.09175 -0.091744
-0.0233087 1.06167 -0.50886
-0.235388 1.10737 -0.254855
0.016497 1.1803 -0.390221
-0.22694 1.10292 -0.227765
0.247654 1.03671 -0.358393
0.196759 1.11374 -0.157156
-0.154918 1.16606 -0.0968305
-0.0231229 1.04076 -0.45564
-0.230378 1.10318 -0.236171
0.269844 1.03383 -0.357185
-0.0681925 1.16561 -0.481115
-0.10433 1.06781 -0.0327355
0.164895 1.15181 -0.345564
-0.0981975 1.06356 -0.0295039
-0.107811 1.07195 -0.0351638
0.357813 1.08601 -0.303123
-0.228734 1.10269 -0.232265
0.0157296 1.26698 -0.443218
-0.0628984 1.16688 -0.483472
0.359515 1.09316 -0.299952
0.23189 1.05452 -0.349392
0.0144539 1.25302 -0.524436
0.305253 1.08961 -0.0941859
0.325995 1.1993 -0.233933
-0.231058 1.10604 -0.260727
-0.178383 0.988002 -0.150994
0.291455 1.08201 -0.0716287
0.350186 1.1081 -0.22533
0.242082 1.20587 -0.243344
0.00253928 1.11515 -0.408525
0.285338 1.22704 -0.221853
-0.232725 1.11232 -0.268761
-0.0526542 1.14623 -0.359675
0.0305886 1.08708 -0.113927
-0.231216 1.1113 -0.262416
-0.0924884 1.01351 -0.209607
-0.0897019 1.1214 -0.169416
-0.130221 0.958344 -0.193643
-0.00283042 1.09618 -0.413717
-0.0893846 1.11912 -0.168256
-0.178985 1.09179 -0.119809
-0.0787572 1.14715 -0.163795
0.0225666 1.21223 -0.394583
0.247083 1.06556 -0.0286512
-0.144294 1.08632 -0.0721886
0.225168 1.11369 -0.187402
-0.193752 1.0773 -0.137742
-0.202615 1.03008 -0.146199
0.18277 1.09994 -0.146829
-0.0248444 1.03945 -0.461871
0.272322 1.16059 -0.412308
0.0382375 1.15814 -0.401948
0.220416 1.07292 -0.343605
0.315403 1.04275 -0.337755
-0.0244 1.05081 -0.494411
-0.138177 1.07954 -0.0612258
-0.184517 1.09217 -0.128682
0.32958 1.05377 -0.330603
0.232406 1.05546 -0.0212412
-0.203266 1.03256 -0.146651
0.301797 1.03431 -0.346058
0.0534912 1.08344 -0.110436
0.34371 1.13517 -0.301274
0.204796 1.10702 -0.165937
-0.0225416 1.07702 -0.526752
-0.106969 0.988584 -0.209635
0.0271225 1.23392 -0.396801
0.346431 1.1035 -0.197846
0.132294 1.15436 -0.373053
-0.0941069 1.12892 -0.222608
0.175049 1.14876 -0.337333
0.0228679 1.26695 -0.427807
0.242982 1.15967 -0.449673
0.0166862 1.26704 -0.438728
