ply
format ascii 1.0
element vertex 907
property float x
property float y
property float z
end_header
-0.363807 1.22341 -0.50856
-0.377522 1.22198 -0.501101
-0.403721 1.22165 -0.488646
-0.408527 1.22175 -0.48724
-0.422144 1.22167 -0.482146
-0.363198 1.22348 -0.508609
-0.383732 1.28396 -0.486158
-0.374372 1.28035 -0.488988
-0.426417 1.22152 -0.48038
-0.338624 1.23178 -0.402864
-0.330309 1.21121 -0.323521
-0.337681 1.22708 -0.403421
-0.338277 1.23047 -0.402716
-0.385948 1.28449 -0.485832
-0.405025 1.22206 -0.440151
-0.379595 1.21666 -0.3206
-0.394189 1.21868 -0.320026
-0.32985 1.21126 -0.323915
-0.34246 1.21199 -0.323405
-0.338804 1.27003 -0.401433
-0.365949 1.21477 -0.321478
-0.339244 1.2116 -0.323812
-0.411216 1.2547 -0.319911
-0.370686 1.21515 -0.321745
-0.361096 1.33774 -0.322619
-0.366522 1.25605 -0.324307
-0.430632 1.25595 -0.318656
-0.331809 1.21005 -0.324771
-0.331163 1.21119 -0.32326
-0.349805 1.21281 -0.322528
-0.343498 1.25776 -0.32764
-0.339007 1.25886 -0.32791
-0.338812 1.34186 -0.397174
-0.338505 1.27416 -0.400667
-0.351139 1.35639 -0.402534
-0.373119 1.33726 -0.32317
-0.353612 1.35655 -0.404114
-0.35248 1.35647 -0.403181
-0.339603 1.34486 -0.393224
-0.358195 1.33796 -0.322521
-0.350018 1.35617 -0.401637
-0.369212 1.33734 -0.323176
-0.347162 1.29319 -0.320763
-0.362408 1.25574 -0.325292
-0.338695 1.33872 -0.32166
-0.348039 1.25736 -0.327172
-0.404726 1.25515 -0.320168
-0.407494 1.33913 -0.322187
-0.43902 1.35321 -0.354726
-0.386886 1.35159 -0.359398
-0.345841 1.29329 -0.320658
-0.329909 1.26158 -0.327622
-0.331997 1.26119 -0.327815
-0.44288 1.34325 -0.320274
-0.452572 1.2242 -0.317713
-0.424105 1.34122 -0.32148
-0.434172 1.35298 -0.355415
-0.4303 1.34231 -0.321234
-0.379443 1.33783 -0.32315
-0.382286 1.255 -0.322095
-0.443474 1.25563 -0.317856
-0.409784 1.35249 -0.356835
-0.387557 1.33811 -0.323229
-0.390449 1.35181 -0.35914
-0.392502 1.33843 -0.323387
-0.338496 1.33916 -0.391898
-0.349864 1.34951 -0.365029
-0.449165 1.25584 -0.317446
-0.339245 1.25689 -0.402092
-0.351185 1.34941 -0.364829
-0.39383 1.35192 -0.358577
-0.349805 1.35889 -0.4558
-0.347223 1.33816 -0.321647
-0.338431 1.3095 -0.396764
-0.396091 1.35296 -0.404096
-0.338392 1.31286 -0.396097
-0.339257 1.26123 -0.402454
-0.350442 1.23648 -0.452161
-0.381613 1.35364 -0.403649
-0.383519 1.33808 -0.323277
-0.374868 1.28066 -0.488393
-0.44233 1.22134 -0.475879
-0.428515 1.28882 -0.316625
-0.337626 1.32225 -0.39296
-0.480596 1.35197 -0.403381
-0.416439 1.25439 -0.31977
-0.350506 1.22395 -0.451505
-0.350559 1.22464 -0.451671
-0.369859 1.21798 -0.445398
-0.425558 1.35212 -0.404139
-0.540462 1.29296 -0.311181
-0.570594 1.34787 -0.411712
-0.484829 1.27772 -0.477828
-0.350387 1.22397 -0.451096
-0.340243 1.34579 -0.394634
-0.535781 1.22029 -0.424028
-0.374767 1.22191 -0.502412
-0.442335 1.36043 -0.459426
-0.405138 1.28423 -0.484895
-0.443738 1.28021 -0.482817
-0.345046 1.36167 -0.441655
-0.444863 1.31896 -0.471481
-0.349333 1.36019 -0.452264
-0.402171 1.22211 -0.44087
-0.345002 1.3607 -0.441496
-0.348606 1.35548 -0.398997
-0.457534 1.34301 -0.318418
-0.382255 1.32205 -0.472734
-0.352026 1.34961 -0.36515
-0.339495 1.34305 -0.392933
-0.346157 1.31869 -0.44527
-0.368403 1.22285 -0.506887
-0.337155 1.33604 -0.321057
-0.37059 1.35827 -0.459235
-0.365005 1.22447 -0.509505
-0.3653 1.22347 -0.508441
-0.354393 1.34947 -0.364647
-0.396628 1.35196 -0.357322
-0.449761 1.3194 -0.471355
-0.437758 1.22034 -0.433659
-0.397593 1.3597 -0.460137
-0.357477 1.35621 -0.404709
-0.51651 1.27513 -0.474347
-0.35509 1.36741 -0.449904
-0.338097 1.33781 -0.391401
-0.353048 1.34976 -0.365533
-0.532879 1.22152 -0.470819
-0.411549 1.35975 -0.460327
-0.443658 1.22751 -0.375205
-0.413589 1.28923 -0.316905
-0.597825 1.29911 -0.429949
-0.350744 1.23237 -0.452032
-0.400222 1.35264 -0.40381
-0.392681 1.22188 -0.493584
-0.394551 1.32207 -0.471247
-0.450551 1.28041 -0.481934
-0.434775 1.36073 -0.459313
-0.398127 1.29017 -0.317384
-0.366266 1.22481 -0.510898
-0.384623 1.35365 -0.404121
-0.379238 1.32181 -0.473247
-0.511352 1.35277 -0.407032
-0.383672 1.35913 -0.459803
-0.374382 1.35835 -0.459882
-0.373219 1.32246 -0.474439
-0.443599 1.35162 -0.403228
-0.420457 1.3526 -0.355204
-0.36682 1.22328 -0.507898
-0.417785 1.22179 -0.483926
-0.471182 1.2185 -0.428854
-0.367358 1.22461 -0.512385
-0.436556 1.35306 -0.355053
-0.348099 1.26255 -0.448344
-0.572275 1.22356 -0.424977
-0.548483 1.29189 -0.311864
-0.559615 1.35909 -0.455831
-0.542804 1.3237 -0.465252
-0.464089 1.36052 -0.457956
-0.593532 1.35189 -0.338008
-0.58933 1.35118 -0.373873
-0.4371 1.25582 -0.318257
-0.589216 1.34834 -0.374603
-0.574532 1.35537 -0.313796
-0.482974 1.36017 -0.457101
-0.399056 1.22197 -0.440802
-0.349595 1.35968 -0.453906
-0.342537 1.35309 -0.445232
-0.467077 1.35455 -0.350843
-0.496545 1.27819 -0.476199
-0.492816 1.36031 -0.456235
-0.548217 1.35308 -0.315649
-0.553347 1.35372 -0.315612
-0.526305 1.36023 -0.455419
-0.595658 1.32212 -0.429185
-0.364793 1.34972 -0.363268
-0.423126 1.28907 -0.316699
-0.58884 1.35636 -0.311219
-0.389799 1.29022 -0.31792
-0.372518 1.22206 -0.504021
-0.350708 1.23438 -0.452252
-0.446024 1.2875 -0.315715
-0.590552 1.33936 -0.374536
-0.589674 1.34376 -0.37452
-0.564415 1.25708 -0.3153
-0.432597 1.35215 -0.404054
-0.405339 1.31937 -0.471285
-0.338331 1.3361 -0.320096
-0.536657 1.36006 -0.455537
-0.592557 1.35185 -0.337727
-0.348646 1.25534 -0.448589
-0.418408 1.33994 -0.321555
-0.412838 1.33935 -0.321794
-0.479035 1.34553 -0.317729
-0.436185 1.31834 -0.471513
-0.465037 1.34382 -0.318096
-0.591029 1.33645 -0.374418
-0.595935 1.3453 -0.420004
-0.349893 1.2932 -0.320795
-0.598869 1.2836 -0.373734
-0.349627 1.3383 -0.322079
-0.42456 1.25575 -0.319108
-0.462291 1.27932 -0.480584
-0.537016 1.2331 -0.314928
-0.475682 1.25486 -0.31655
-0.4991 1.22828 -0.316233
-0.594908 1.35152 -0.337305
-0.536631 1.257 -0.314696
-0.515222 1.23087 -0.314953
-0.509792 1.22991 -0.315317
-0.421822 1.28273 -0.484176
-0.357595 1.25606 -0.326063
-0.520659 1.36034 -0.455438
-0.35339 1.21339 -0.321875
-0.598872 1.28724 -0.310714
-0.601644 1.2872 -0.310565
-0.533117 1.29316 -0.3108
-0.602202 1.25801 -0.430037
-0.385301 1.22105 -0.441095
-0.561916 1.22958 -0.366503
-0.453608 1.21999 -0.43172
-0.480615 1.25547 -0.316205
-0.555283 1.25709 -0.315095
-0.337522 1.33845 -0.321774
-0.375856 1.25592 -0.322657
-0.552173 1.25706 -0.314985
-0.587307 1.27374 -0.464232
-0.510035 1.27488 -0.475208
-0.556322 1.2345 -0.315841
-0.392151 1.28468 -0.485431
-0.504706 1.36062 -0.45553
-0.410485 1.28397 -0.484634
-0.587175 1.23893 -0.317548
-0.564572 1.23578 -0.315643
-0.507795 1.2571 -0.314559
-0.501789 1.32421 -0.469507
-0.517734 1.32421 -0.468536
-0.495832 1.35269 -0.404654
-0.350052 1.2418 -0.45269
-0.603454 1.24157 -0.430217
-0.599652 1.23272 -0.368702
-0.352019 1.22558 -0.392487
-0.605354 1.23994 -0.36599
-0.595049 1.34387 -0.371193
-0.427302 1.35291 -0.356008
-0.605642 1.23884 -0.365818
-0.58452 1.2582 -0.313811
-0.409081 1.28938 -0.317099
-0.388503 1.25442 -0.321632
-0.589434 1.23924 -0.317811
-0.595452 1.32616 -0.42896
-0.458371 1.22464 -0.317666
-0.399313 1.22164 -0.490248
-0.584515 1.34491 -0.41028
-0.603199 1.2335 -0.368509
-0.349538 1.35562 -0.40001
-0.594465 1.34445 -0.426613
-0.339349 1.34132 -0.392866
-0.587471 1.35709 -0.455346
-0.555309 1.29227 -0.312176
-0.589216 1.35181 -0.337368
-0.582795 1.25775 -0.31414
-0.580634 1.35667 -0.456346
-0.50208 1.22184 -0.470454
-0.605196 1.24135 -0.365907
-0.345112 1.36189 -0.442173
-0.605035 1.24287 -0.365894
-0.564438 1.35237 -0.335483
-0.58 1.22472 -0.426196
-0.551269 1.35955 -0.455874
-0.603407 1.24364 -0.430008
-0.603067 1.2459 -0.429626
-0.570799 1.35513 -0.314033
-0.593554 1.32174 -0.374777
-0.583811 1.22527 -0.426672
-0.393714 1.29041 -0.317576
-0.572089 1.25822 -0.314882
-0.568321 1.22315 -0.424708
-0.579367 1.23765 -0.316534
-0.569906 1.25768 -0.315083
-0.467214 1.27837 -0.48014
-0.596372 1.28704 -0.311021
-0.535792 1.35222 -0.410237
-0.346518 1.29732 -0.445776
-0.602394 1.25326 -0.429496
-0.330059 1.21104 -0.324719
-0.592426 1.23177 -0.369005
-0.333366 1.21145 -0.322949
-0.466331 1.22852 -0.372184
-0.538434 1.35011 -0.314707
-0.52036 1.21902 -0.424098
-0.491612 1.32395 -0.469806
-0.338335 1.29408 -0.398758
-0.477942 1.27759 -0.478796
-0.372967 1.21978 -0.444396
-0.510199 1.36079 -0.455488
-0.486442 1.32338 -0.470088
-0.351845 1.35877 -0.456493
-0.496584 1.32418 -0.469686
-0.486674 1.34591 -0.317072
-0.594291 1.35183 -0.338248
-0.374551 1.2272 -0.388595
-0.447794 1.22119 -0.474353
-0.442209 1.22003 -0.43256
-0.541378 1.36004 -0.45557
-0.431663 1.28102 -0.483843
-0.426578 1.22198 -0.437849
-0.387907 1.35363 -0.404774
-0.498325 1.21775 -0.425144
-0.59445 1.3482 -0.424818
-0.422389 1.22221 -0.438426
-0.426775 1.28224 -0.483998
-0.396079 1.28433 -0.485337
-0.55057 1.22127 -0.423703
-0.589131 1.35015 -0.375137
-0.515237 1.35273 -0.40733
-0.481623 1.21801 -0.427131
-0.431499 1.22138 -0.478662
-0.541105 1.35357 -0.338312
-0.339545 1.24142 -0.402361
-0.530889 1.21995 -0.42402
-0.370289 1.22243 -0.505586
-0.547273 1.22156 -0.472542
-0.459626 1.22128 -0.472576
-0.551284 1.2214 -0.472843
-0.382107 1.29061 -0.31863
-0.352795 1.3649 -0.449762
-0.546588 1.2297 -0.366565
-0.540761 1.22056 -0.423884
-0.538024 1.22158 -0.471244
-0.542411 1.27401 -0.47095
-0.460457 1.25594 -0.316884
-0.468877 1.36045 -0.457671
-0.330844 1.2102 -0.325053
-0.370687 1.25646 -0.323382
-0.575242 1.23767 -0.315414
-0.469583 1.32248 -0.470788
-0.358123 1.35801 -0.4571
-0.476607 1.2182 -0.427951
-0.345738 1.32748 -0.444043
-0.420075 1.25493 -0.31956
-0.41127 1.35182 -0.402602
-0.555712 1.35939 -0.455759
-0.532807 1.34938 -0.314806
-0.391607 1.32213 -0.471576
-0.533778 1.27509 -0.47214
-0.590093 1.34146 -0.37457
-0.604008 1.24849 -0.368826
-0.339352 1.23592 -0.403031
-0.603686 1.25033 -0.369388
-0.40162 1.35962 -0.460457
-0.58506 1.23099 -0.368108
-0.592965 1.32516 -0.374738
-0.388842 1.28446 -0.485635
-0.486231 1.21779 -0.426305
-0.478454 1.36051 -0.457153
-0.442104 1.35317 -0.354142
-0.593113 1.34518 -0.412047
-0.578661 1.35209 -0.337191
-0.345172 1.35369 -0.442221
-0.359792 1.22642 -0.390658
-0.48098 1.3228 -0.470418
-0.5713 1.35789 -0.456099
-0.562873 1.34954 -0.411945
-0.508491 1.21821 -0.424482
-0.448171 1.22753 -0.374198
-0.356975 1.34877 -0.362534
-0.555103 1.22105 -0.472765
-0.600534 1.2756 -0.430394
-0.523099 1.22157 -0.470378
-0.429726 1.36022 -0.460071
-0.490846 1.22158 -0.470187
-0.591163 1.22607 -0.428144
-0.46623 1.21889 -0.42966
-0.560646 1.23496 -0.315953
-0.390867 1.2274 -0.384761
-0.438822 1.22752 -0.376186
-0.37852 1.22737 -0.387651
-0.347826 1.27013 -0.447806
-0.345079 1.35688 -0.441163
-0.343984 1.35624 -0.444703
-0.344724 1.35869 -0.443925
-0.5321 1.25718 -0.3147
-0.370855 1.22703 -0.389632
-0.559747 1.22237 -0.424266
-0.339201 1.25336 -0.401592
-0.416139 1.36008 -0.460084
-0.452476 1.22759 -0.373114
-0.489625 1.22981 -0.369709
-0.357589 1.29292 -0.320763
-0.388847 1.35968 -0.459433
-0.361476 1.29236 -0.320659
-0.434097 1.22089 -0.435134
-0.337909 1.31919 -0.39382
-0.329757 1.21121 -0.324365
-0.338172 1.31598 -0.394964
-0.379767 1.22057 -0.442699
-0.372761 1.29161 -0.319394
-0.338364 1.29017 -0.399564
-0.376143 1.3375 -0.323156
-0.430352 1.22148 -0.436675
-0.533748 1.23026 -0.367861
-0.448811 1.35321 -0.353274
-0.447263 1.35162 -0.403509
-0.545634 1.22082 -0.423694
-0.363418 1.22669 -0.39047
-0.37796 1.35377 -0.40384
-0.596317 1.3136 -0.429813
-0.346342 1.31418 -0.445927
-0.381522 1.35116 -0.36073
-0.577708 1.27442 -0.465123
-0.562414 1.32426 -0.462475
-0.348353 1.25882 -0.448453
-0.380265 1.22217 -0.500217
-0.473615 1.36042 -0.457422
-0.346494 1.29362 -0.445863
-0.54025 1.35202 -0.410635
-0.485804 1.25564 -0.315899
-0.586533 1.35614 -0.311293
-0.362259 1.34967 -0.363902
-0.465801 1.22169 -0.472544
-0.418627 1.22731 -0.379213
-0.346505 1.30946 -0.446315
-0.552039 1.29196 -0.312023
-0.347738 1.36053 -0.450596
-0.505381 1.29025 -0.312089
-0.418318 1.22224 -0.438798
-0.41421 1.22741 -0.380174
-0.503166 1.21799 -0.424785
-0.339515 1.34354 -0.3969
-0.517348 1.2553 -0.314686
-0.558449 1.22068 -0.472685
-0.37363 1.32214 -0.474121
-0.472395 1.22197 -0.472141
-0.574308 1.27408 -0.465683
-0.602653 1.24926 -0.429226
-0.575279 1.28869 -0.313074
-0.347507 1.27752 -0.447049
-0.515239 1.3606 -0.455479
-0.346059 1.21243 -0.32285
-0.581812 1.28887 -0.312502
-0.526991 1.34936 -0.31538
-0.512539 1.32415 -0.468979
-0.33773 1.32651 -0.392912
-0.471213 1.35473 -0.350652
-0.437327 1.28028 -0.483498
-0.599754 1.27598 -0.372562
-0.514001 1.34838 -0.315756
-0.34013 1.33885 -0.321553
-0.55072 1.35342 -0.338303
-0.350294 1.34943 -0.364899
-0.550647 1.22962 -0.366567
-0.366718 1.35797 -0.458946
-0.498676 1.23013 -0.368902
-0.496749 1.22162 -0.470077
-0.587386 1.23117 -0.367912
-0.538158 1.27451 -0.471562
-0.577484 1.357 -0.456246
-0.439731 1.35183 -0.403525
-0.421855 1.35191 -0.403696
-0.434191 1.28831 -0.316492
-0.541945 1.23337 -0.315363
-0.36715 1.22692 -0.390357
-0.350487 1.36126 -0.449039
-0.345353 1.35047 -0.442927
-0.589021 1.35194 -0.374966
-0.512813 1.25629 -0.314566
-0.457193 1.22784 -0.372395
-0.352378 1.33835 -0.322241
-0.40248 1.33894 -0.322659
-0.338169 1.33869 -0.398047
-0.555275 1.22179 -0.423895
-0.46003 1.32118 -0.470874
-0.503549 1.23018 -0.368426
-0.499748 1.35289 -0.405129
-0.370564 1.35433 -0.404504
-0.389312 1.22198 -0.495432
-0.491741 1.35242 -0.404231
-0.493002 1.22785 -0.315946
-0.397684 1.33874 -0.323128
-0.510529 1.29015 -0.311775
-0.522491 1.3245 -0.46802
-0.375256 1.21575 -0.321531
-0.513311 1.23037 -0.367989
-0.491482 1.27819 -0.476871
-0.475069 1.32255 -0.470699
-0.543233 1.35176 -0.315324
-0.428473 1.22737 -0.377531
-0.588762 1.34446 -0.409813
-0.429338 1.3522 -0.404119
-0.353422 1.29323 -0.320816
-0.338176 1.30252 -0.397163
-0.431852 1.31765 -0.47172
-0.339356 1.24717 -0.401734
-0.440352 1.28767 -0.316128
-0.559377 1.27353 -0.46835
-0.554459 1.2296 -0.366557
-0.404012 1.28975 -0.317288
-0.398876 1.22734 -0.382792
-0.542718 1.22164 -0.471946
-0.604524 1.24509 -0.367522
-0.504553 1.22904 -0.315801
-0.546279 1.35987 -0.455704
-0.40424 1.22742 -0.381814
-0.340402 1.34519 -0.39531
-0.40643 1.35239 -0.357196
-0.351143 1.22527 -0.392843
-0.416326 1.28322 -0.484409
-0.530584 1.32432 -0.467218
-0.461937 1.21934 -0.430213
-0.493721 1.34607 -0.316298
-0.382143 1.22083 -0.441937
-0.472104 1.27763 -0.479621
-0.487501 1.35222 -0.403885
-0.590323 1.27347 -0.464073
-0.388467 1.32226 -0.471963
-0.406244 1.35962 -0.460564
-0.407387 1.35206 -0.402965
-0.544544 1.29233 -0.311573
-0.345347 1.34009 -0.442643
-0.59515 1.31136 -0.374915
-0.423771 1.35281 -0.355799
-0.594675 1.31524 -0.375006
-0.339497 1.24428 -0.402094
-0.376719 1.32188 -0.473717
-0.527099 1.35247 -0.408793
-0.438327 1.36088 -0.458999
-0.345158 1.3613 -0.442828
-0.518265 1.22174 -0.470419
-0.336823 1.33631 -0.321536
-0.555627 1.35314 -0.337774
-0.464693 1.32212 -0.470755
-0.464384 1.22507 -0.317499
-0.538441 1.23007 -0.367341
-0.595196 1.23207 -0.369151
-0.423457 1.2273 -0.378228
-0.595514 1.24167 -0.317757
-0.358923 1.34903 -0.363479
-0.578376 1.32367 -0.461211
-0.349015 1.36087 -0.449711
-0.347533 1.35599 -0.398689
-0.419934 1.31857 -0.471491
-0.598964 1.28992 -0.429836
-0.507699 1.22206 -0.470764
-0.584079 1.3568 -0.455913
-0.598066 1.34129 -0.420281
-0.594992 1.33885 -0.428378
-0.560539 1.35266 -0.336261
-0.34688 1.28535 -0.446766
-0.484732 1.22951 -0.37006
-0.491188 1.25519 -0.315692
-0.601114 1.27092 -0.430406
-0.338007 1.22932 -0.402795
-0.360296 1.34944 -0.363788
-0.457292 1.35152 -0.403278
-0.58755 1.22565 -0.427227
-0.583961 1.35177 -0.336914
-0.596937 1.34301 -0.419988
-0.563469 1.2733 -0.467746
-0.517402 1.23039 -0.367949
-0.599463 1.28551 -0.429884
-0.424807 1.36012 -0.460428
-0.531552 1.36016 -0.455454
-0.351604 1.34932 -0.364735
-0.337529 1.32464 -0.392733
-0.45371 1.22106 -0.472936
-0.542687 1.22985 -0.366881
-0.576122 1.32405 -0.46127
-0.383391 1.22214 -0.498744
-0.582441 1.34534 -0.410586
-0.507823 1.34736 -0.31556
-0.427754 1.31726 -0.471832
-0.595347 1.33043 -0.429034
-0.393614 1.35985 -0.45954
-0.558266 1.29238 -0.312396
-0.544282 1.35165 -0.410728
-0.59521 1.33479 -0.428847
-0.494173 1.23003 -0.369456
-0.346596 1.30117 -0.446114
-0.40306 1.35223 -0.357048
-0.385467 1.32228 -0.472318
-0.59598 1.31791 -0.429505
-0.59351 1.35651 -0.310438
-0.495703 1.25501 -0.315462
-0.347913 1.26633 -0.448247
-0.548614 1.25677 -0.314884
-0.39462 1.22734 -0.383744
-0.594405 1.3462 -0.42549
-0.356831 1.22615 -0.39102
-0.565441 1.34899 -0.411762
-0.53098 1.35404 -0.340276
-0.5733 1.32448 -0.461474
-0.545841 1.35361 -0.338601
-0.591464 1.33343 -0.374406
-0.495439 1.28942 -0.31291
-0.350166 1.23901 -0.45216
-0.39965 1.21933 -0.320005
-0.586568 1.35181 -0.337249
-0.500387 1.28991 -0.312505
-0.499486 1.256 -0.315064
-0.490123 1.21767 -0.426095
-0.381197 1.28314 -0.486554
-0.4599 1.3605 -0.458289
-0.338321 1.28203 -0.399975
-0.454712 1.25612 -0.317075
-0.36853 1.29197 -0.319764
-0.45128 1.28767 -0.315471
-0.594665 1.35168 -0.338039
-0.36138 1.2142 -0.321584
-0.589665 1.23143 -0.368505
-0.507179 1.32424 -0.469309
-0.473453 1.35148 -0.402815
-0.461905 1.22817 -0.372221
-0.433578 1.22745 -0.376902
-0.49405 1.35513 -0.347868
-0.57537 1.35232 -0.337342
-0.348243 1.36028 -0.451304
-0.454055 1.35394 -0.353691
-0.536777 1.2935 -0.310874
-0.372183 1.22359 -0.511557
-0.522037 1.29032 -0.311194
-0.45016 1.34303 -0.3193
-0.52468 1.23045 -0.368579
-0.525793 1.21949 -0.424065
-0.370282 1.34972 -0.361694
-0.467433 1.28881 -0.314636
-0.571155 1.28903 -0.313253
-0.594547 1.35007 -0.424587
-0.598425 1.29435 -0.429771
-0.338086 1.33067 -0.393156
-0.520553 1.34946 -0.316108
-0.33495 1.26008 -0.327979
-0.551214 1.27405 -0.469538
-0.338291 1.30619 -0.397025
-0.52569 1.35472 -0.343097
-0.371281 1.21907 -0.445228
-0.377323 1.22034 -0.443192
-0.403764 1.35237 -0.403426
-0.338004 1.33584 -0.391834
-0.487825 1.36015 -0.456784
-0.546631 1.23373 -0.315615
-0.548071 1.35121 -0.41075
-0.571682 1.35245 -0.33711
-0.523212 1.35251 -0.407838
-0.503606 1.35284 -0.405647
-0.529773 1.29175 -0.310977
-0.529178 1.2304 -0.368181
-0.377453 1.35851 -0.46012
-0.346567 1.30522 -0.446455
-0.346573 1.28955 -0.446192
-0.336371 1.33667 -0.321704
-0.494132 1.21767 -0.425697
-0.508526 1.23032 -0.368177
-0.514335 1.21856 -0.424198
-0.567714 1.34842 -0.411633
-0.603265 1.23556 -0.429854
-0.473073 1.28848 -0.314307
-0.559562 1.35005 -0.411982
-0.567247 1.25727 -0.315238
-0.574038 1.34738 -0.411674
-0.601958 1.2629 -0.430361
-0.59675 1.30905 -0.429926
-0.601899 1.2607 -0.37169
-0.595472 1.35139 -0.337367
-0.353664 1.34893 -0.363788
-0.597241 1.30427 -0.429947
-0.413311 1.22182 -0.485797
-0.450855 1.3517 -0.403757
-0.599316 1.27983 -0.373267
-0.560838 1.2921 -0.312692
-0.59373 1.23977 -0.318217
-0.582476 1.2379 -0.317186
-0.594151 1.31856 -0.374951
-0.558345 1.25704 -0.315204
-0.377612 1.29114 -0.319024
-0.375082 1.32199 -0.473941
-0.602937 1.25408 -0.369739
-0.511156 1.3547 -0.343752
-0.601042 1.26641 -0.372291
-0.567856 1.35244 -0.336318
-0.590662 1.35679 -0.311314
-0.386318 1.22206 -0.497116
-0.365025 1.29205 -0.320266
-0.350025 1.2443 -0.453445
-0.33783 1.22792 -0.402975
-0.563302 1.29104 -0.313065
-0.520879 1.23039 -0.368329
-0.382649 1.22744 -0.386865
-0.600598 1.26937 -0.372039
-0.591943 1.23944 -0.318119
-0.590237 1.34446 -0.41004
-0.504757 1.27581 -0.475686
-0.352674 1.2568 -0.326565
-0.564183 1.22279 -0.424552
-0.458029 1.21974 -0.430943
-0.580734 1.25769 -0.314274
-0.568038 1.23673 -0.315146
-0.57616 1.23045 -0.368676
-0.602247 1.25814 -0.370944
-0.356805 1.34897 -0.363491
-0.582526 1.23085 -0.368783
-0.597584 1.29397 -0.374007
-0.603298 1.25231 -0.369614
-0.367046 1.35511 -0.404822
-0.391744 1.35337 -0.404699
-0.456928 1.28028 -0.481104
-0.569058 1.23001 -0.36776
-0.454225 1.35164 -0.403644
-0.451755 1.36031 -0.459085
-0.584508 1.27406 -0.464409
-0.465847 1.25498 -0.316843
-0.347713 1.27377 -0.447367
-0.551642 1.23411 -0.315758
-0.378769 1.2824 -0.487086
-0.345379 1.336 -0.442689
-0.431044 1.35294 -0.355736
-0.547561 1.32389 -0.46454
-0.503188 1.2572 -0.314672
-0.413603 1.22208 -0.438986
-0.423751 1.31759 -0.471787
-0.344788 1.33829 -0.321382
-0.339057 1.34006 -0.392684
-0.455027 1.32004 -0.471143
-0.536292 1.3536 -0.338287
-0.386008 1.29031 -0.318289
-0.594756 1.24078 -0.318067
-0.569948 1.32429 -0.461713
-0.558216 1.22953 -0.366406
-0.594679 1.34189 -0.427524
-0.436937 1.22135 -0.477222
-0.470815 1.22881 -0.37177
-0.551636 1.32416 -0.463999
-0.436328 1.34297 -0.32079
-0.479844 1.22928 -0.370528
-0.576114 1.25884 -0.314559
-0.364167 1.3558 -0.404547
-0.596118 1.30431 -0.374154
-0.374131 1.35403 -0.403989
-0.578809 1.34641 -0.411106
-0.398442 1.25519 -0.320557
-0.598413 1.28719 -0.373717
-0.566479 1.32412 -0.462014
-0.363201 1.35791 -0.458465
-0.394731 1.22175 -0.44069
-0.601499 1.23299 -0.368554
-0.34003 1.3447 -0.396373
-0.573863 1.2586 -0.314768
-0.571449 1.2374 -0.314958
-0.604282 1.24669 -0.368304
-0.345434 1.34718 -0.443065
-0.409037 1.31964 -0.471114
-0.574549 1.35757 -0.456036
-0.475238 1.22903 -0.371164
-0.472219 1.34469 -0.317867
-0.595288 1.35591 -0.309461
-0.447025 1.36033 -0.459418
-0.603367 1.23857 -0.430313
-0.45728 1.3541 -0.352783
-0.352878 1.22574 -0.392019
-0.354447 1.22592 -0.391466
-0.581407 1.27433 -0.464669
-0.399739 1.35199 -0.356718
-0.498601 1.36044 -0.455864
-0.350553 1.22602 -0.45138
-0.349136 1.25175 -0.450194
-0.597984 1.29072 -0.373754
-0.33947 1.2386 -0.402686
-0.561329 1.25705 -0.315245
-0.597589 1.23237 -0.369071
-0.460425 1.35138 -0.403052
-0.58075 1.34593 -0.410927
-0.515614 1.35488 -0.343827
-0.338355 1.27811 -0.40017
-0.345924 1.32327 -0.444512
-0.42035 1.3601 -0.460266
-0.463827 1.35436 -0.351169
-0.349672 1.24792 -0.452153
-0.478799 1.22195 -0.471513
-0.384038 1.35142 -0.360013
-0.555821 1.35048 -0.41179
-0.601499 1.26335 -0.372294
-0.355356 1.35647 -0.404683
-0.338365 1.28604 -0.399887
-0.338245 1.29822 -0.397827
-0.418087 1.28916 -0.316765
-0.484736 1.22176 -0.470824
-0.397723 1.32132 -0.471141
-0.45148 1.35359 -0.353774
-0.363892 1.22392 -0.508815
-0.566755 1.28991 -0.313241
-0.440489 1.31879 -0.471463
-0.579624 1.23066 -0.368874
-0.585748 1.25862 -0.313745
-0.477215 1.35177 -0.403156
-0.461967 1.28852 -0.314987
-0.526263 1.29072 -0.311092
-0.600172 1.27239 -0.372063
-0.414986 1.35172 -0.402594
-0.344986 1.35948 -0.441187
-0.604753 1.24408 -0.366712
-0.591403 1.35181 -0.337476
-0.555442 1.27394 -0.468903
-0.464569 1.35134 -0.403018
-0.551867 1.35084 -0.411241
-0.591917 1.33082 -0.374493
-0.45644 1.28797 -0.31528
-0.59562 1.30769 -0.374512
-0.480522 1.35495 -0.348975
-0.475954 1.35483 -0.349897
-0.337936 1.32855 -0.393208
-0.408784 1.22204 -0.439449
-0.576039 1.22412 -0.425703
-0.558855 1.32428 -0.462945
-0.489332 1.35533 -0.348679
-0.538304 1.32388 -0.465925
-0.409373 1.22744 -0.380965
-0.572491 1.23024 -0.368278
-0.602597 1.25589 -0.370288
-0.33909 1.26567 -0.402156
-0.599951 1.28086 -0.430069
-0.393246 1.25475 -0.321053
-0.490132 1.28883 -0.313284
-0.455968 1.3604 -0.458681
-0.345553 1.33161 -0.443298
-0.521024 1.25555 -0.314751
-0.601589 1.26684 -0.430451
-0.520391 1.35495 -0.343918
-0.59714 1.29744 -0.37414
-0.506141 1.35466 -0.34466
-0.500546 1.27722 -0.475893
-0.40136 1.31988 -0.471321
-0.395856 1.22174 -0.491906
-0.445641 1.35312 -0.353578
-0.376706 1.2816 -0.487686
-0.483764 1.35213 -0.403647
-0.389559 1.22134 -0.440529
-0.529115 1.27574 -0.472665
-0.51621 1.29018 -0.311457
-0.500974 1.34627 -0.315343
-0.526695 1.32447 -0.467687
-0.519258 1.35261 -0.407435
-0.523468 1.27589 -0.473341
-0.544941 1.25663 -0.314807
-0.592173 1.35675 -0.310974
-0.592915 1.34749 -0.371534
-0.374933 1.22009 -0.443728
-0.34721 1.28138 -0.446901
-0.484647 1.28839 -0.313614
-0.373123 1.32224 -0.47425
-0.596653 1.30092 -0.374094
-0.592417 1.32817 -0.374687
-0.345362 1.34384 -0.442833
-0.534168 1.32422 -0.466622
-0.578874 1.28852 -0.31283
-0.355318 1.33821 -0.322415
-0.36896 1.22399 -0.512294
-0.546802 1.27393 -0.470251
-0.328449 1.26188 -0.327601
-0.355135 1.35832 -0.456842
-0.584948 1.23841 -0.317452
-0.513104 1.22198 -0.470712
-0.356004 1.34868 -0.362833
-0.359899 1.35602 -0.404747
-0.541009 1.25669 -0.314719
-0.46064 1.35423 -0.351709
-0.524535 1.25629 -0.314715
-0.338094 1.33313 -0.39253
-0.342239 1.33853 -0.321384
-0.478956 1.2882 -0.313975
-0.367701 1.34965 -0.362379
-0.576671 1.34686 -0.41144
-0.50749 1.3528 -0.406266
-0.417341 1.35252 -0.355454
-0.372388 1.35003 -0.361953
-0.578603 1.2584 -0.314404
-0.531351 1.35238 -0.409623
-0.339249 1.2501 -0.401459
-0.448099 1.22003 -0.432135
-0.418413 1.35174 -0.403101
-0.351584 1.36196 -0.449072
-0.570882 1.27351 -0.466384
-0.400282 1.28413 -0.48516
-0.362114 1.35587 -0.404471
-0.376159 1.35083 -0.361921
-0.594536 1.24034 -0.318169
-0.336173 1.21153 -0.323332
-0.527896 1.22152 -0.470507
-0.483788 1.35508 -0.34866
-0.591628 1.34462 -0.410815
-0.469308 1.35133 -0.402779
-0.364817 1.33768 -0.323027
-0.435929 1.35206 -0.403833
-0.581463 1.35189 -0.336982
-0.412296 1.31996 -0.470968
-0.415996 1.3194 -0.471169
-0.586818 1.34458 -0.409895
-0.555202 1.32429 -0.463515
-0.528145 1.25713 -0.314654
-0.350654 1.23025 -0.451683
-0.486558 1.35525 -0.348703
-0.565488 1.22976 -0.367094
-0.470923 1.25453 -0.316797
-0.386877 1.22745 -0.385919
-0.378909 1.351 -0.361404
-0.500029 1.35488 -0.346467
-0.413597 1.35247 -0.356154
-0.567205 1.2733 -0.467104
-0.360434 1.35796 -0.457788
