ply
format ascii 1.0
element vertex 1547
property float x
property float y
property float z
end_header
-0.0294529 -0.0126901 -0.129557
0.0278496 0.0553044 0.00332402
0.0030929 0.0689716 -0.100944
0.039215 0.118039 -0.127658
-0.116678 -0.012572 -0.0321471
0.0471466 0.0531812 -0.0602091
0.0472247 0.0547664 -0.0595951
0.00161678 -0.09956 0.0412727
0.0962619 0.00581108 0.0432981
0.000461981 0.0303865 -0.108054
0.0964103 0.00568244 0.0431459
0.111033 0.0018871 -0.0542158
-0.0143564 0.074331 0.0137969
-0.0109379 0.0522951 -0.0946618
-0.016602 0.0572944 0.00907906
-0.0104847 0.0417843 0.0274167
0.00981157 -0.0992192 -0.0235066
0.00224736 0.0516896 0.00455719
-0.00981336 0.0952644 0.0238088
-0.000272774 -0.0743817 0.10692
0.00966939 0.143142 -0.132164
0.006903 -0.0817491 0.0933764
-0.00972435 0.0959204 0.024256
-0.000329512 0.167198 -0.12332
0.00586545 -0.0807152 0.0977332
0.00701415 -0.0889309 0.0775592
0.09258 0.00476972 0.058409
0.00771634 -0.0992303 0.00190196
-0.013432 0.0454326 0.0117518
-0.0447158 0.0652853 0.135678
-0.0134289 0.0451126 0.0121675
0.0137731 -0.0449137 -0.132463
-0.00675089 0.104711 0.0299179
-0.00679918 0.107089 0.0306961
-0.0129657 0.0762863 0.0143087
0.0727769 -0.0106712 -0.103347
-0.00675067 0.104384 0.0297973
0.0719435 0.0350379 0.102459
0.00872009 -0.0978512 0.00685927
0.00367673 0.203826 -0.0858317
-0.0424795 0.0690936 0.136274
-0.00711573 0.156077 0.0315264
0.0124134 0.0486274 -0.0944497
0.0731399 0.033093 0.100854
-0.0511049 0.0563493 -0.0184301
0.086598 0.0105903 0.0793498
0.009531 -0.0813298 -0.116441
-0.0111012 0.0939804 0.130998
-0.0632608 0.0364406 0.130518
0.0377546 0.0582828 -0.00202975
0.0396816 0.116104 -0.127458
0.00237493 0.205468 -0.0420029
-0.000698399 0.0503405 0.0747832
0.00234981 0.205556 -0.0427175
0.0888335 0.00569835 0.069069
0.00407874 0.0720943 -0.103694
-0.00715522 0.150354 0.0324653
-0.00216764 0.0454142 0.0643752
0.0774667 0.0245905 0.0966397
-0.0571373 0.0419842 0.131416
-0.00252575 0.122016 0.0309203
-0.116271 -0.0131066 -0.0143019
-0.0096882 0.0851487 0.017655
0.00849283 -0.0847041 0.0863285
-0.000460191 0.0858736 -0.13589
0.0106461 0.0958426 0.127559
0.00937235 -0.0980253 0.0155892
-0.0642316 0.0353156 0.129885
0.00026679 -0.0695043 0.112531
-0.0159819 0.0687596 0.010485
0.010637 -0.0926769 -0.105933
1.78584e-05 0.0556192 0.083353
-0.059896 0.0402617 0.131659
-0.000107182 0.0837497 0.098556
-0.0134261 0.045377 0.0117882
-0.000252107 0.07033 0.0932817
-0.00964059 0.0520879 -0.095322
-0.000381577 0.0528481 0.0790699
-0.0402141 0.0928894 -0.123624
0.083451 0.0174898 0.0896885
-0.000338139 0.0522118 0.0782174
-0.114507 -0.0150886 0.00907942
-0.0066505 0.10657 0.030499
0.000394537 -0.0171044 0.14511
-0.0066797 0.165582 0.0288589
-0.0484496 0.0578485 -0.0129047
0.00665326 0.0694118 0.143974
-0.000281206 0.0696559 0.0931042
-0.0200468 -0.0102299 -0.13138
0.00299592 0.0428329 0.151303
0.000607532 0.12412 -0.169434
0.000473483 0.0292116 0.152631
0.000494121 0.0275199 0.152441
0.0579282 -0.00960305 -0.114242
0.0012435 0.0366235 0.152659
-0.0614089 0.0386206 0.131335
-0.0544012 0.0531024 0.13365
0.0561961 0.0494109 0.115478
0.0425679 0.0599486 -0.00878547
-0.0589474 0.0482602 0.131454
-0.00155142 0.184982 -0.111573
-0.0576732 0.049544 0.132267
-0.0563575 0.0514081 0.133148
-0.0576743 0.0492766 0.132188
-0.11314 -0.0189706 -0.0579183
-0.065419 0.0335594 0.129224
-0.00051052 0.168023 -0.123009
-0.0650336 0.0341882 0.129427
-0.000309874 0.0541391 0.081237
0.0169805 -0.0649112 -0.12562
-0.0627638 0.0369916 0.130765
0.0438324 0.0598194 -0.00963355
0.0867484 0.0100772 0.0785562
-0.0736098 0.0186518 0.121616
-0.0772519 0.0141332 0.116424
-0.0754017 0.0177978 0.12033
-0.000709522 0.0587606 0.0862075
-0.0763687 0.0168628 0.119372
-0.0760083 0.0174883 0.119706
0.000986734 0.00598199 0.148594
0.0106366 0.000267205 -0.130485
-0.0855464 0.00440341 0.0974751
0.00267185 0.0416295 0.151553
0.0634547 0.0361757 0.110292
0.000527328 0.025185 0.15206
-0.00244081 0.0884283 -0.14568
-0.0711896 0.0212278 0.124388
0.013118 -0.0113172 -0.129407
-0.0606083 0.0394742 0.13158
0.0482926 0.0669611 0.118887
-0.0709288 0.021704 0.124653
0.000610979 -0.0233339 0.143561
-0.0765509 0.0163473 0.119032
0.00789151 -0.0871706 0.0816748
0.0382364 0.0583707 -0.00235411
0.0102781 -0.0989519 -0.024945
0.0881372 0.00555144 0.0718381
0.0342535 0.128126 -0.128465
0.0405061 0.0591907 -0.00448993
-0.000349465 -0.0439773 0.137314
0.0840244 0.0165404 0.0885139
-0.0550915 0.0526428 0.133484
-0.0778936 0.0119827 0.114421
0.00685198 -0.101704 -0.00443784
0.00233986 -0.0273838 0.141111
0.047884 0.0677368 0.118912
-0.00416641 0.113358 0.0318069
-0.00441435 0.11293 0.0317695
-0.00147925 0.0478329 0.0700122
-0.0940596 -0.0204598 -0.086739
0.0347159 0.0877422 -0.125712
-0.00566587 0.177601 0.0232851
0.0071331 -0.0993073 0.0317961
-0.000251316 0.0579565 0.0857416
0.0100854 -0.082147 -0.115763
-0.0405673 -0.0160496 -0.124233
-0.000779653 -0.0542598 0.129995
0.00791341 -0.102547 -0.0132294
-0.00265424 0.120878 0.0313203
0.000416039 -0.0180688 0.144898
-0.00800184 0.042625 0.038844
0.00232437 -0.0986986 0.0456599
0.0338893 0.0898373 0.125184
-0.110197 -0.0205205 -0.0629887
0.00270099 -0.0102766 -0.133815
0.00808265 -0.0999475 0.0297718
0.00787216 -0.0998366 0.0301859
0.0817561 -0.008017 -0.0954416
0.107968 -0.00507528 -0.016459
-0.011464 0.0416273 0.0230396
-0.00260337 0.194471 0.00758242
0.00115213 -0.100544 0.0374655
0.00702007 0.0904138 0.137401
0.00913546 -0.0985007 0.0183579
0.0436685 0.0927749 -0.125791
-0.117573 -0.0156154 -0.0428182
-0.0944774 -0.00169388 0.0656568
-0.103595 -0.018803 -0.0752365
0.000647825 0.0321742 0.152866
0.10875 0.00101753 -0.0614146
-0.0944769 -0.00174718 0.0655053
-0.094496 -0.00152532 0.06587
-0.0940645 0.000678767 0.0676138
-0.0940346 0.000916199 0.0678596
-0.0935342 0.00162885 0.0703664
-0.0937597 0.00150212 0.0693327
0.0119016 -0.0260456 -0.134809
-0.00912317 0.0420036 0.0321294
-0.00911789 0.0420987 0.0328976
0.0322615 0.0479868 -0.0846191
-0.00429731 0.129148 -0.149404
-0.106268 -0.0201709 -0.0700196
0.00319077 -0.097449 0.0524489
0.00267184 -0.0981941 0.0488345
0.00191876 -0.0991873 0.0428411
-0.0226514 0.0880247 0.134587
0.00369505 -0.095106 0.0616408
0.10218 0.0108412 0.0304681
-0.115744 -0.0132333 -0.00410537
-0.086644 0.00360689 0.094225
-0.0936401 0.00163101 0.0699779
-0.00208399 0.190145 -0.105843
-0.0937105 0.00159285 0.0696373
0.0635571 -0.0106334 -0.111351
-0.00995279 0.0907988 0.0209872
0.111791 0.0033998 -0.0477692
-0.0101736 0.0831905 0.0166754
0.0424123 -0.00938679 -0.12432
0.0363728 0.0580894 -0.00123225
-0.00983685 0.0902591 0.0206464
-0.0104445 0.0824986 0.0164228
-0.11099 -0.00566217 0.030519
-0.0157673 0.0702108 0.0115271
-0.00407071 0.191149 0.0125068
0.0273243 0.0552923 0.00366131
0.0178256 -0.068642 -0.123004
-0.0282851 0.134449 -0.135883
0.0151337 -0.0962844 -0.0901924
-0.108319 -0.0209427 -0.0654497
-0.111774 -0.0063418 0.0276126
-0.000411343 0.203866 -0.0124201
0.0260219 0.0488306 -0.0879544
-0.0896878 0.00263569 0.0854933
-0.0466512 0.058526 -0.010259
-0.00771433 0.0434349 0.0466335
-0.0066206 0.168171 0.0278245
-0.109964 -0.00574452 0.0329542
0.0083998 -0.100047 0.0229715
-0.000943249 0.0949423 -0.17647
0.100858 0.0127919 0.0403903
-0.110316 -0.0056371 0.0322676
-0.110148 -0.00565373 0.0326214
0.034258 -0.00959342 -0.125945
0.00344579 0.0603479 -0.0908972
-0.000578051 0.0862588 -0.136882
0.0112503 0.0578456 0.00158014
0.010686 0.0576079 0.00171491
0.0410527 0.0905795 -0.125634
-0.00924433 0.0894907 0.0199799
-0.110482 -0.00563623 0.0317824
-0.00670366 0.17033 0.0269821
-0.109733 -0.00576554 0.0332352
-0.114427 -0.0150485 0.00965188
-0.00943949 0.0868306 0.0185542
0.00197979 0.0782386 -0.116442
0.00142779 -0.0999829 0.0396918
-0.0539173 0.0523426 -0.0409904
-0.112963 -0.013186 0.0155705
-0.00944473 0.130437 0.0341834
-0.00790076 0.0954234 0.129945
-0.0427292 0.119556 -0.134923
0.0275903 0.0552965 0.00345978
-0.112039 -0.00767442 0.0243176
0.00672128 -0.0814847 0.0940036
0.00669749 -0.0992324 0.0332616
0.0368699 0.125183 -0.128525
0.00283977 -0.0979934 0.0499976
-0.0044489 0.189929 0.0137264
0.000828142 -0.00495099 0.146918
0.00223058 -0.098872 0.0447274
0.00640873 -0.0995205 0.0339565
-0.00753359 0.0434116 0.0473583
0.00859146 -0.0991988 0.0199634
0.0448534 0.0736037 0.119319
0.00855898 -0.0993773 0.0204758
0.00843506 -0.099891 0.0223148
0.00344088 -0.096519 0.0562765
0.000553846 0.124329 -0.168176
-0.10986 -0.0210074 -0.0633333
-0.109254 -0.0213146 -0.0641113
-0.00105704 0.087129 -0.139711
-0.00156033 0.186559 -0.109914
0.0180351 -0.0726433 -0.119657
-0.00018731 0.0717936 0.0937966
0.000663613 -0.101537 0.0349753
-0.00782682 0.142455 0.0330479
-0.117031 -0.0165079 -0.04671
0.0304439 0.0556011 0.00248042
0.107952 -0.00541691 -0.0176031
-0.041183 0.120858 -0.134921
0.00765925 -0.102363 -0.0149049
-0.117118 -0.0135082 -0.0261877
-0.0424462 0.11975 -0.135133
-0.00366092 0.0531765 0.00695997
-0.116606 -0.0126108 -0.0334523
0.000603019 0.0225785 0.151639
-0.116556 -0.0126269 -0.0339439
0.000689001 0.033136 0.152893
-0.117446 -0.0161998 -0.0449216
-0.117479 -0.0154663 -0.0424134
-0.0156386 0.0915475 0.13256
-0.00988697 0.0838965 0.016947
-0.110081 -0.0206723 -0.0631364
-0.117553 -0.0161325 -0.0442962
-0.115962 -0.0130426 -0.00896666
-0.00702751 0.152377 0.0321983
0.0084528 -0.0862752 0.0831571
-0.0168477 0.051177 0.0131868
-0.0134759 0.0454638 0.0116811
-0.0169039 0.0517282 0.0128597
-0.115444 -0.0181951 -0.0527921
-0.116154 -0.0123364 -0.0363716
0.110323 -0.00545672 -0.0315119
-0.117187 -0.0164152 -0.0461433
-6.1649e-05 -0.0727953 0.108732
0.0885462 0.00542305 0.0700426
-0.0118035 0.0789294 0.0151185
-0.116696 -0.0149847 -0.0408053
0.0429093 0.107364 -0.127504
-0.0872808 0.00319964 0.0923045
-0.117327 -0.0162997 -0.0455507
-0.11664 -0.0125737 -0.0328542
0.0372127 0.0582588 -0.00179752
-0.00960393 0.0861614 0.0182366
-0.116498 -0.0126412 -0.0344001
0.00713451 0.0498842 -0.0964598
-0.0776294 0.0127678 0.11496
0.0028647 0.205269 -0.0358948
-0.021657 0.0886371 0.134318
0.00775995 -0.102686 -0.0108746
0.0464007 0.054166 -0.0603871
-0.00754485 0.101688 0.0285747
-0.0250681 0.0857161 0.135232
-0.0416371 0.0532416 -0.0750329
-0.0774363 0.0133687 0.115431
-0.111224 -0.0059501 0.0298492
-0.00872289 0.0423403 0.0361078
-0.111887 -0.0092622 0.0224497
-0.0360331 0.0588435 0.00208312
0.0115047 -0.0245092 -0.134785
-0.091389 0.00251496 0.0793688
-8.97835e-05 0.0812175 0.0975635
-0.0532625 0.054454 -0.0286512
0.0501223 0.0603609 -0.0203325
-0.00423321 0.190576 0.0131056
-0.0531783 0.054568 -0.0281764
0.00339375 0.205133 -0.0291179
0.00357108 -0.0954868 0.0603448
-0.0136594 0.0458664 0.0113137
0.0181459 -0.0696726 -0.122146
0.000293137 -0.070329 0.111568
-0.0117623 0.0416479 0.0218012
-0.0112892 0.0415826 0.0238546
0.00559022 -0.0112287 -0.131939
-0.0116261 0.0416563 0.0223935
-0.116983 -0.0129252 -0.0283001
-0.105637 -0.0196614 -0.071418
0.0197363 0.0610787 0.00335573
-0.0459386 0.106215 -0.12958
0.0204218 0.0611047 0.00302663
-0.00410754 0.12791 -0.154612
0.011717 0.0580462 0.00146584
0.00712475 0.0864586 0.139907
-0.0532239 0.0543181 -0.0295129
-0.00104111 0.0521755 0.00527704
-0.0869934 0.00330913 0.0932201
-0.0357684 0.0887431 -0.128429
-0.0520681 0.0557134 -0.020833
-0.116277 -0.0125033 -0.0355657
-0.116211 -0.0124454 -0.035945
-0.0537119 0.0534911 -0.0339699
-0.0537898 0.053013 -0.0366577
-0.0419875 0.120201 -0.134798
-0.0532927 0.0501841 -0.0571848
-0.09959 -0.0202614 -0.0806201
-0.0531439 0.0503967 -0.0582692
-0.0530951 0.0505273 -0.050491
-0.116883 -0.0127169 -0.0299055
-0.0537311 0.0520229 -0.0434108
-0.052385 0.050295 -0.0551908
-0.000394458 -0.0783756 0.102703
-0.053269 0.0541822 -0.0301475
-0.00194495 0.0377009 -0.101416
0.0568518 -0.00909931 -0.114831
-0.0111755 0.0814484 -0.128124
0.0892423 0.00536804 0.0676734
-0.000518193 0.0333367 -0.104955
0.0037386 0.051734 -0.0827363
-0.000987185 0.0346226 -0.103802
0.0117681 -0.100099 -0.054025
0.0763516 -0.00917814 -0.0995107
-0.00075482 0.0339552 -0.104385
0.00642459 -0.0899095 0.0751491
-4.27216e-06 0.0321081 -0.106121
-0.0523374 0.0502506 -0.0558573
0.00347249 0.0655677 -0.0968009
0.0358236 0.0884259 0.125003
0.0687398 0.0362152 0.107106
0.0107911 -0.0846459 -0.11364
0.0506434 0.0607755 -0.0222947
0.0399581 0.0898661 -0.125423
0.0150511 0.0489238 -0.0929856
-0.0526859 0.0501816 -0.0625231
0.017506 0.049239 -0.0915875
0.0332806 0.0901803 0.125274
0.0154525 0.0489669 -0.0927864
0.0169872 0.0492306 -0.091975
-0.00960571 0.0967453 0.0247701
0.0164372 0.0491213 -0.0923722
-0.0661419 0.0322269 0.128645
-0.0311032 0.131365 -0.135307
-0.00909636 0.0983547 0.0260238
0.00120511 0.079379 -0.120203
0.0723235 -0.0106596 -0.103919
0.00154388 0.0790874 -0.119175
-0.000342077 0.204448 -0.013434
0.00106774 0.0286387 -0.110024
0.0358116 0.0491528 -0.0821686
0.00275011 0.0255905 -0.11293
0.00976147 0.00488927 -0.128753
-0.0525696 0.0499109 -0.0529856
-0.0285729 -0.0124771 -0.129822
0.0167816 0.140454 -0.131875
0.0407316 0.0597854 -0.00601861
0.00449732 0.0231914 -0.114791
0.0465226 -0.0109373 -0.124115
-1.02544e-05 0.125237 -0.164065
0.0459029 0.0714705 0.119185
0.0101375 -0.0115193 -0.129865
-0.00357071 -0.00803803 -0.135121
-0.00243651 -0.00737972 -0.135546
0.00555763 0.0211648 -0.116371
0.0625709 -0.0104321 -0.111726
0.0438515 0.104255 -0.128519
-0.00399816 0.127843 -0.155383
-0.0170858 0.0602881 0.00821112
0.000167367 -0.0679061 0.114472
0.0630995 -0.0105595 -0.111532
0.000530196 0.140175 -0.130069
-0.000851409 -0.0517732 0.132257
-0.000794886 -0.0526191 0.131518
-0.115084 -0.0144328 0.00424241
0.0195137 0.13926 -0.131138
0.00396691 0.0238401 -0.114346
0.00352532 0.0244236 -0.113909
0.0139067 0.0488781 -0.0937151
0.0110289 0.0483994 -0.0947821
0.0128339 0.0485537 -0.0943766
0.0419354 0.0819794 0.124002
-0.0293117 0.0586083 0.00843853
0.0406548 -0.00929541 -0.124672
-0.116847 -0.0127597 -0.0306129
-0.00289242 0.131827 -0.138167
0.000256997 0.124993 -0.164961
-0.0120724 0.0533471 -0.0936502
0.00174989 0.0466124 -0.0823045
-0.0281883 0.0537953 -0.0842985
-0.0351225 0.0879816 -0.12893
-0.0106172 0.0520688 -0.0948546
-0.0329129 0.0588611 0.00498388
-0.0112324 0.0525913 -0.0944093
-0.0141721 0.0544136 -0.0920846
-0.0263478 0.0541356 -0.0852653
0.0173354 -0.0748721 -0.117635
0.00268911 0.205346 -0.0368972
0.0129942 -0.041923 -0.132571
-0.0107641 0.0416387 0.0261
0.00263673 0.205337 -0.03864
-0.0342114 0.0539349 -0.0810196
-0.0020984 0.126979 -0.158328
-0.0257569 0.0544582 -0.0854807
0.000283539 0.082348 -0.127975
0.0340843 0.0875415 -0.125901
-0.0432398 0.0525956 -0.0729235
-0.0111096 0.0415287 0.0247545
-0.0610964 -0.0197372 -0.116455
0.0093271 -0.0979355 0.0149913
0.0149303 -0.0494997 -0.131913
0.0147684 -0.0478987 -0.132255
0.0235096 -0.0104047 -0.128458
0.0124449 -0.095678 -0.0961732
0.00352199 0.0599521 -0.0903836
-0.0131896 0.043103 0.0144943
0.00749485 0.0496094 -0.0964443
0.0172047 -0.0663715 -0.124582
0.0164615 -0.074927 -0.11758
0.043605 0.1059 -0.12776
0.000442033 0.0756004 0.0953603
-0.00667362 0.105362 0.0300669
-0.0567754 0.051006 0.133054
-0.0132491 0.081822 -0.128881
0.0966062 0.00548057 0.0431814
-0.0530747 0.0504324 -0.0603525
-0.060307 0.0398831 0.13156
-0.115756 -0.0182891 -0.0513875
0.0525987 0.0595943 -0.0513314
0.000440747 -0.0406528 0.138609
-0.0375774 0.124671 -0.136272
-0.0117387 0.053119 -0.0939236
-0.0445796 0.11806 -0.133848
0.0382593 0.122318 -0.128027
0.000307435 0.0846556 -0.132581
-0.048454 0.0520926 -0.0637658
0.0434212 0.0924514 -0.125682
-0.0443845 0.0984181 -0.124415
-0.0429917 0.119334 -0.13474
0.0816138 0.0201641 0.0925199
-0.115693 -0.0133918 -0.00301155
-0.0446817 0.0523111 -0.0714671
-0.0328077 0.0864184 -0.129572
0.00336937 0.0703383 -0.102231
0.0294076 0.0552056 0.00272396
0.0556463 0.0512066 0.116264
-0.00417942 0.0929697 -0.164184
0.0026241 0.205309 -0.0394849
-0.0100708 -0.00928333 -0.133204
0.00666374 0.0826742 0.142293
-0.00034657 0.125542 -0.162924
-0.00401682 0.130764 -0.143203
0.0527345 0.0630896 -0.0398165
-0.000899608 0.12612 -0.160784
-0.0459324 0.112504 -0.132624
0.00784796 -0.100913 -0.0206335
0.0153702 -0.0511779 -0.131401
-0.0650329 -0.0205503 -0.112497
-0.0351049 0.0537271 -0.0805084
-0.0657968 -0.020584 -0.111767
-0.048978 -0.0196763 -0.121815
0.0240709 0.136424 -0.130317
0.00350409 0.0980062 0.129231
-0.0931212 -0.0206224 -0.087152
-0.0946042 -0.0204059 -0.0862697
-0.116045 -0.0130566 -0.0104002
-0.102416 -0.0189814 -0.077201
-0.104723 -0.0195215 -0.0733822
-0.0443193 0.0981462 -0.123713
-0.0440365 0.0977942 -0.123346
-0.0444503 0.0997474 -0.125243
-0.0457851 0.114538 -0.133344
-0.0153203 0.0727344 0.0130442
0.0990739 -0.000973596 -0.077642
0.042806 0.0520352 -0.0756605
0.103664 0.000127721 -0.0689995
0.0498905 0.0604087 -0.0198274
-0.0530603 0.0506276 -0.0595197
-0.11584 -0.0130145 -0.00634728
-0.115898 -0.0130262 -0.0075891
-0.115787 -0.0130843 -0.00521187
-0.0523447 0.0512843 -0.0647014
-0.0589151 -0.0190978 -0.11894
-0.052153 0.0516209 -0.065383
-0.0522638 0.0515113 -0.0650769
-0.0742304 -0.023212 -0.10186
0.00794661 -0.0988993 0.00272675
0.0214678 -0.0104601 -0.129084
-0.0523256 0.0502341 -0.0562686
-0.0163148 0.0668963 0.00974798
-0.0457144 0.0516988 -0.0693078
-0.0377925 -0.0146699 -0.125838
0.00758126 -0.101538 -0.0193169
-0.0537752 0.0522148 -0.0428593
0.0107299 -0.0936675 -0.103697
0.0117447 -0.100215 -0.0577418
-0.00325168 0.20182 -0.00735603
0.0148062 -0.0485048 -0.132151
0.0110857 -0.0947125 -0.100257
0.00281155 0.0478552 -0.0812743
0.0208788 0.0822999 -0.127786
0.0685381 -0.00999012 -0.107606
-0.111951 -0.0110754 0.0196689
-0.0451185 0.0512006 -0.0701951
-0.0850753 -0.0233376 -0.0901839
-0.114039 -0.0147474 0.0119557
-0.0352091 0.0882618 -0.12888
0.0290657 0.0854559 -0.127195
0.00751007 -0.0995488 0.00104653
0.00481607 0.097615 0.128914
0.0573711 -0.00923378 -0.114481
0.00204087 0.205103 -0.0185183
0.0116174 -0.0996562 -0.0435927
0.0790461 -0.00882883 -0.0975118
0.000105723 0.0732502 0.094383
0.078366 -0.00907387 -0.0980552
0.0161738 -0.0548571 -0.130151
0.00553949 0.0573944 0.147579
0.0160513 -0.0540579 -0.130415
0.0158025 -0.0534289 -0.130634
0.0938187 0.00576894 0.0542071
-0.115521 -0.0180921 -0.0524065
0.0155006 -0.0523987 -0.131019
0.0154546 -0.0518074 -0.131216
0.0585153 -0.00987484 -0.113983
0.106561 0.00519138 0.00543452
0.000363512 0.20473 -0.0147117
-0.000335615 0.0525069 0.0785915
-0.0469214 0.0522473 -0.0674503
0.00707298 0.0173509 -0.119299
0.0506762 -0.00817975 -0.118692
0.0454567 0.0989381 -0.127321
-0.001968 0.0993816 -0.179232
0.000773202 0.15802 -0.126075
0.0415544 -0.00934238 -0.124492
0.0224834 0.0822358 -0.127469
-0.000312496 0.0854873 -0.134926
-0.0371315 -0.014291 -0.126127
0.0117764 -0.0993193 -0.0389798
0.00977279 0.00436929 -0.128985
0.00693187 0.0851345 0.140739
0.0388749 0.0891439 -0.12501
0.0181228 -0.0723552 -0.119943
0.00972986 0.00388023 -0.12922
-0.00684622 -0.00904449 -0.134119
0.0490729 0.0552795 -0.0576125
-0.0396201 0.122407 -0.135387
-0.00747137 -0.0090147 -0.133945
0.0129757 -0.0323288 -0.133446
0.00728834 0.0164945 -0.120069
-0.075818 0.0176462 0.119957
-0.008921 -0.00921393 -0.133534
0.00977394 0.00618545 -0.12801
0.0130236 -0.0375658 -0.132891
0.0148245 -0.0963231 -0.0906764
-0.0879184 0.00316873 0.0902879
-0.0530943 0.0504527 -0.0600557
0.0153991 -0.0965809 -0.0887855
0.0154792 -0.0967297 -0.088078
-0.00917574 0.0421959 0.0337802
0.016247 -0.0966532 -0.0854525
-0.0278906 -0.0121642 -0.129948
-0.0524079 0.0551143 -0.0219584
0.00931851 0.00849864 -0.126581
0.0115484 -0.0254258 -0.134842
0.102994 0.00138195 -0.07461
0.0223689 0.0494868 -0.0895064
-0.0211986 -0.0103388 -0.13117
0.00778475 0.143538 -0.132378
0.00239401 0.208002 -0.0542476
-0.0441681 -0.0183017 -0.12268
0.0115621 -0.0949494 -0.0990236
0.000626304 0.160793 -0.125454
0.0112132 -0.0876448 -0.11107
-0.0144475 0.0821613 -0.129769
0.0132933 -0.0958233 -0.0948762
0.0422162 0.0598776 -0.00847596
0.0464325 -0.0110984 -0.124015
0.0462509 -0.0096604 -0.123715
0.0464324 -0.0112666 -0.12391
0.0404127 0.111298 -0.127688
0.0181908 -0.0706749 -0.121371
0.00214233 0.207802 -0.0516901
0.0114295 -0.0115695 -0.129665
0.0729053 -0.010566 -0.103104
0.00783758 0.014305 -0.122041
0.0117595 -0.100152 -0.064765
0.0976818 -0.00174843 -0.0790225
0.0873574 0.00706361 0.0748059
-0.0473044 0.0521511 -0.0669081
0.098199 -0.00156965 -0.0785674
0.0257874 0.0836635 -0.127256
0.103917 -9.73069e-05 -0.0677465
0.00478914 -0.0110598 -0.132631
0.0743033 -0.0102187 -0.101809
0.0127922 0.142124 -0.132007
0.0114312 -0.0247241 -0.134862
-0.113739 -0.0144123 0.0129427
0.0619964 -0.0103147 -0.111991
-0.0297156 0.132829 -0.135658
0.0122083 -0.095606 -0.0967839
-0.015697 0.0647436 0.00856297
0.0107068 -0.0931686 -0.104996
0.0190751 -0.0108687 -0.129625
0.0135025 0.0951112 0.127165
-0.0151953 -0.00972156 -0.131934
0.0298054 0.0478051 -0.0864367
-0.110899 -0.00559667 0.0306859
0.011766 -0.0951867 -0.0982616
-0.00925329 0.131913 0.0339558
0.030195 0.0477611 -0.0861563
0.00630787 -0.0805074 0.0967779
0.103239 0.00157875 -0.0743286
-0.0362938 -0.0138146 -0.126463
0.0309039 0.0477946 -0.0857225
0.0326681 0.0480089 -0.0843019
0.0026694 0.208041 -0.0560296
-0.112261 -0.019395 -0.0594119
0.00758026 -0.102268 -0.0157446
0.111441 0.0030217 -0.0495457
0.110522 -0.00480582 -0.0323034
0.014849 -0.0490091 -0.132042
-0.01001 0.0813633 -0.128334
0.0125251 -0.0281217 -0.134352
0.0403791 0.0509884 -0.0785012
-0.0176883 -0.00991703 -0.1317
0.040946 0.0511309 -0.0779797
0.10472 0.0082782 0.0170437
0.00198532 0.206369 -0.0459653
-0.09607 -0.020536 -0.0848499
0.014142 -0.0461014 -0.13247
0.010203 -0.0824769 -0.115509
0.02887 -0.0100753 -0.127139
0.00364931 0.0444596 0.151007
0.108529 -0.00720699 -0.0234285
-0.00729041 0.102184 0.0288268
0.0128939 -0.0403575 -0.132701
0.00706629 -0.100887 -0.00234737
-0.0529199 0.054962 -0.0270005
0.0113134 -0.0989643 -0.0320627
-0.00186114 0.189392 -0.106732
-0.0531201 0.0507485 -0.0491014
-0.0435777 -0.0180193 -0.12294
-0.00159517 0.134943 -0.133222
0.0120104 0.0954814 0.127329
0.00678777 0.066914 0.144818
-0.018876 -0.010116 -0.131555
0.0010258 0.0971732 0.104713
0.000939267 -0.00193652 0.147329
0.000807358 0.143121 -0.129017
-0.114144 -0.0148342 0.0114155
-0.000585944 0.168782 -0.122693
0.016579 -0.0613772 -0.127529
0.000848822 0.155112 -0.126553
0.000527773 0.0100095 0.149421
-0.0468447 0.0620132 0.13508
0.0725222 0.0344803 0.101665
-0.0964671 -0.0206079 -0.0843715
0.0116004 -0.100208 -0.0683496
0.0115324 -0.100253 -0.0694227
0.00936415 -0.0809625 -0.116806
0.00974036 -0.081496 -0.116275
0.0110897 -0.098897 -0.0297941
0.0469212 -0.00966283 -0.123636
0.0128857 -0.0411561 -0.132638
-0.0420236 -0.0170173 -0.123668
0.0398914 0.114673 -0.127253
0.00812403 -0.0986003 0.00362242
-0.041353 -0.0165673 -0.12394
0.0129314 -0.0396077 -0.132767
0.111128 0.00185957 -0.0537096
-0.00321677 0.127479 -0.15668
0.0109377 -0.085653 -0.112786
-0.0844728 -0.0233881 -0.0906554
0.0707265 -0.0106 -0.105321
0.0438554 0.0930555 -0.125863
-0.00282226 0.0471378 -0.0929469
-0.00682468 0.158809 0.0309741
0.0101891 0.0572388 0.00190397
0.112223 0.00353506 -0.0420639
-0.0538472 0.0527266 -0.0397205
0.0086816 0.0566539 0.00250675
0.0110328 -0.100456 -0.0736534
0.000438463 0.0204811 0.151345
0.0951895 -0.00316402 -0.081802
0.109683 -0.00717341 -0.0291204
0.0161857 -0.0581197 -0.128998
-0.101004 -0.0195445 -0.0791901
0.0317005 0.0561874 0.00216629
0.0314392 0.0559817 0.00222416
-0.116418 -0.0147729 -0.0402995
-0.116154 -0.0145596 -0.0395414
-0.00557739 0.110868 0.0314927
-0.0141554 -0.00968381 -0.132155
-0.0903164 0.00249475 0.0836813
0.000910622 -0.00355888 0.147102
0.110353 0.0015253 -0.0575814
-0.00183425 0.0465965 0.0673047
0.0183326 0.139997 -0.131247
-0.0436721 0.0584294 -0.00607298
0.000549474 -0.0227447 0.143724
-0.091528 0.00251562 0.0786212
0.0109552 -0.100469 -0.0745135
-0.0491561 0.0575723 -0.0140351
-0.0460758 0.0520558 -0.0686969
-0.000461262 -0.0763352 0.104706
-0.00978912 0.0817643 -0.128495
0.107875 -0.00563082 -0.0184852
0.00108759 0.00148109 0.14783
-0.000674026 -0.0551345 0.129161
-0.0537589 0.0527443 -0.0379295
0.00639348 -0.0809031 0.0953483
0.00680887 -0.0991439 0.0327762
0.0163128 -0.0749311 -0.117734
-0.114595 -0.015085 0.00828923
-0.11357 -0.0142057 0.0134902
-0.112759 -0.0129409 0.0162516
-0.0356068 0.0536109 -0.0802103
0.0101556 -0.100948 -0.0808226
0.0383571 0.0584308 -0.00246899
0.00741172 -0.0995993 0.0310857
6.82744e-05 0.0560508 0.0838714
-0.0100876 0.130507 -0.185793
0.00698612 -0.101459 -0.00378405
0.00921619 -0.0976912 0.0129881
-0.000301756 -0.0750631 0.106137
-0.0916468 0.0025171 0.0779342
-0.00463787 0.0432226 0.0542876
0.0955011 0.0059154 0.0463099
0.00388281 -0.0946846 0.0628225
-0.0041507 0.130408 -0.145386
-0.00170758 0.100052 -0.179182
0.0877752 0.00595551 0.073497
-0.0930625 0.00173822 0.072028
-0.000879563 0.0868585 -0.138761
-0.081613 0.00675146 0.106241
-0.0456952 0.115194 -0.133209
-0.116136 -0.0130742 -0.0117675
0.104502 0.00846919 0.018155
0.033764 0.128586 -0.128532
0.0123053 -0.0269619 -0.13462
0.0109619 -0.100517 -0.0788266
0.0900946 0.00478066 0.0656735
0.00757765 0.0967877 0.12835
0.00214549 0.207915 -0.052554
-0.0081264 -0.00904458 -0.133753
-0.000667771 -0.0801502 0.101606
0.00469916 -0.0926065 0.0682359
0.0971598 -0.00197204 -0.0795031
0.0385915 0.0502075 -0.0798249
-0.011923 0.0415973 0.0205964
0.000539541 -0.0148579 0.145478
1.80454e-05 -0.0638065 0.119753
0.0779448 0.0240254 0.0960395
0.0208518 0.138474 -0.130999
-0.000592867 0.0677336 0.0923158
0.0622943 0.0362516 0.110528
-0.0075884 0.144337 0.0329127
-0.000513667 -0.0796297 0.101815
0.102305 0.0106935 0.0295658
0.0853535 0.0139776 0.0843595
0.0981706 0.0052501 0.0426405
0.0967001 0.00535809 0.043191
0.0115518 -0.0991881 -0.0365938
0.00811388 -0.100431 -0.0213668
0.00399521 0.0453265 0.150861
0.0567188 0.0480623 0.115012
0.00425791 0.0460797 0.150713
0.0081721 0.0490359 -0.0964732
-0.00041274 0.204168 -0.0131015
0.00345659 -0.0961942 0.057627
0.0541291 -0.00888276 -0.116877
-0.0999669 -0.0199991 -0.0803477
0.000325769 0.0884248 0.100055
-0.00442162 0.128542 -0.151721
0.00416584 0.20457 -0.0834003
0.016736 -0.0626459 -0.126877
0.0394277 0.119448 -0.127959
0.112335 0.00316276 -0.0415479
-0.104395 -0.019256 -0.0739466
0.111201 0.00233943 -0.0519697
-0.00353821 0.0435417 0.0573781
0.112344 0.00202065 -0.0396379
0.0950068 0.00599411 0.0487057
-0.0345551 0.128092 -0.135696
0.0415637 0.0598379 -0.00740629
0.0417403 0.0598376 -0.00776328
0.112149 0.00385466 -0.0431889
0.00476945 0.0518233 0.14925
0.0952616 0.00596968 0.0476216
0.10795 -0.00410634 -0.0140712
-0.00235704 0.122595 0.0307101
0.107935 -0.00360888 -0.0130929
0.0367281 0.0581833 -0.00151926
-0.07711 0.0145942 0.11695
0.00915578 -0.0996578 -0.0223272
0.0506926 0.0605596 -0.0218585
0.00617487 0.0815824 0.14334
0.0506497 0.0603725 -0.0213498
0.0420001 0.0515243 -0.0769008
0.0010836 0.00307105 0.148089
-0.00493606 0.183928 0.0190737
0.0507378 0.0607219 -0.0233246
0.056007 -0.00945059 -0.115749
0.0122383 -0.0114182 -0.129531
0.0128853 -0.0314653 -0.13362
0.00424898 0.073409 -0.105142
0.107337 0.000998526 -0.00379029
-0.00175503 0.19596 0.00469455
0.0535896 0.0617606 -0.0350106
0.000632268 -0.101442 0.0351679
-0.108805 -0.0211259 -0.0647133
0.00572724 -0.0910169 0.0721644
0.0583602 0.0436692 0.113352
0.0587703 0.0425884 0.113101
-0.00517411 0.0431263 0.0525793
-0.11315 -0.0134731 0.0150384
0.00934812 -0.0807931 -0.116975
0.0314443 0.0867573 -0.126687
-0.0419175 0.053132 -0.0746404
-0.00660136 0.171895 0.0262923
0.00858229 0.0965893 0.12803
-0.0366959 0.0894458 -0.127549
-0.116213 -0.0130948 -0.0130132
-0.0132388 0.0452304 0.011875
-0.00110492 0.0488697 0.0721732
-0.0900043 0.00252515 0.0846766
-0.108025 -0.00461663 0.0358386
-0.000956143 0.0636065 0.0902291
0.039278 0.120038 -0.128041
-0.0894354 -0.0219864 -0.0878361
0.0796394 -0.00858171 -0.0970074
0.000658165 -0.101366 0.0352841
-0.00216526 0.123077 0.0304913
0.020483 0.0610821 0.00292349
-0.000777406 0.0500684 0.0743147
0.103489 0.00939596 0.0236005
0.098641 -0.00126759 -0.078088
0.00491923 0.0532039 0.00371618
0.0270739 0.0552308 0.00389572
-0.092086 0.00229176 0.0758606
0.0487763 0.0613643 -0.0171513
-0.0157814 0.0651625 0.00875103
0.0333093 0.0578463 0.00123926
0.00310049 0.20196 -0.0904126
0.00547879 -0.0914113 0.0711398
0.00334978 0.0435924 0.151167
0.0215278 0.0611042 0.00245749
0.000474564 0.0949782 0.102975
-0.000895358 0.065352 0.091262
-0.0472977 0.0611749 0.134997
-0.0288258 0.0538799 -0.0838838
-0.0102458 0.13145 -0.184703
-0.00141462 0.0617674 0.0888488
0.0752584 0.0279708 0.0991082
-0.00201366 0.0964578 0.128596
-0.00126521 0.0595723 0.0868174
0.0486841 0.0662128 0.118801
0.00812482 0.0565343 0.00271807
-0.0126156 0.0769785 0.0145056
0.00715663 0.0968512 0.128443
0.00442071 0.0499248 0.149903
-0.0282593 0.0817841 0.135867
0.0521456 0.0601551 0.118741
0.00654776 0.0618031 0.146412
-0.00400219 0.0932219 -0.165253
0.0475151 0.0684648 0.118841
0.0732127 0.0328551 0.100699
0.100746 0.0128249 0.0406069
0.0251814 0.135672 -0.12989
0.101341 0.0123223 0.0385925
0.00434508 0.204769 -0.0826897
0.0592483 0.0414662 0.112767
0.0597419 0.0404392 0.112264
0.000958069 -0.000271521 0.147582
0.0062564 0.0500351 -0.0966663
-0.0167242 0.0543931 0.0108334
-0.0167382 0.0538819 0.0112378
0.029287 0.0551189 0.00277163
0.0536584 0.0616424 -0.0346355
-0.00452968 0.186975 0.0166329
0.00065481 0.0957092 0.103489
-0.00634264 0.174409 0.0250343
-0.0455622 0.116106 -0.133026
0.0328444 0.0577084 0.0014512
-0.00227073 0.199372 -0.00176206
0.00747427 -0.101718 -0.0185898
0.00441797 0.0977253 0.129021
-0.0381153 0.0733078 0.136932
0.023139 0.0496333 -0.0890209
0.00562192 0.0972987 0.128734
-0.0618372 0.0380785 0.131181
0.00703323 -0.101192 -0.00310046
-0.00629481 0.175047 0.0247014
-0.117058 -0.0135431 -0.0237465
-0.000927338 0.0659765 0.0915984
-0.0269296 0.0834068 0.135659
0.0136784 -0.0443561 -0.132422
0.0032194 0.204869 -0.0221258
9.47278e-05 -0.0719799 0.109673
-0.00907747 0.133447 0.0337633
0.0863682 0.0111868 0.0801255
-0.00128896 0.0873752 -0.140683
-0.013789 0.044633 0.0124338
0.0868662 0.00953446 0.0778233
-0.0311288 0.0789823 0.135969
-0.10531 -0.0196195 -0.0721471
-0.105952 -0.0198509 -0.0706949
0.0884657 0.0053302 0.0703933
0.00339691 0.204808 -0.0227007
-0.0171148 0.0606906 0.00843764
0.0661049 -0.0104089 -0.109495
-0.00238356 0.200308 -0.00371694
-0.0167144 -0.00971222 -0.131764
0.00458947 0.05063 0.149695
0.00472407 0.0512299 0.149473
0.00280867 0.192783 -0.101105
-0.056011 0.0517942 0.133264
0.00436884 0.0482387 0.150252
0.00433354 0.0491187 0.150088
0.103319 0.00148801 -0.0743368
0.00273782 0.0983239 0.129425
0.00292651 0.0983038 0.129305
-0.0166196 0.0910516 0.132857
0.000848947 0.00732327 0.148865
0.0208514 0.0611079 0.00276711
-0.000331636 0.051867 0.0777504
0.04968 0.06078 -0.0189598
-0.0845114 0.00480765 0.100137
-0.0361683 0.125772 -0.136279
0.00666331 0.06319 0.146069
0.00671213 0.0657424 0.14526
-0.00342146 0.193301 0.00972986
0.0462993 0.0706975 0.119125
0.0153268 0.0811588 -0.128044
-0.0457792 0.0637216 0.1353
0.0558016 0.0505278 0.115923
0.0878661 0.00589411 0.0732207
-0.00834252 0.0424466 0.0375993
0.0036593 0.050256 -0.081645
0.0433818 0.075903 0.120863
0.0446123 0.0740724 0.119538
0.0495634 0.0609865 -0.0185445
-0.0233268 -0.0106426 -0.130781
0.0490265 0.0613496 -0.0176382
0.100964 0.0127601 0.0403191
0.0519175 0.0577459 -0.0529884
0.0526514 0.0630661 -0.0394585
-0.000894404 -0.0469946 0.135756
0.0252796 0.0835079 -0.127179
0.00793873 -0.100677 -0.0210159
0.0370287 0.0498344 -0.08093
-0.00684805 0.161042 0.0303816
-0.0461041 0.107083 -0.13054
-0.00598685 0.116684 -0.19311
0.00687072 0.0181821 -0.118569
0.040868 0.0598248 -0.00638088
-0.034763 0.0586499 0.00340528
0.0209476 -0.0105772 -0.129248
0.039893 0.0507814 -0.0789871
0.0320227 0.0870722 -0.126588
-0.0531156 0.05037 -0.0586425
-0.0109384 0.041567 0.0255086
-0.00633293 0.10861 0.0309156
-0.00663027 0.108115 0.0308545
-0.000709034 -0.0463439 0.136078
-0.00982213 0.092494 0.0219087
-0.0433011 0.0584963 -0.00558227
0.0448271 0.0597876 -0.01076
0.0740297 0.0306138 0.100341
0.0188967 0.139662 -0.131176
0.0474312 0.0609755 -0.0144795
0.00476913 0.0757517 0.142205
0.0478758 0.0517629 -0.0652153
0.00227195 -0.0278057 0.140853
0.00356584 0.204758 -0.0233471
0.00302618 0.205195 -0.034861
0.00562456 0.0547186 0.00346098
-0.00232244 0.199999 -0.00306031
0.0398859 0.11318 -0.127278
-0.00286042 0.201412 -0.0063929
-0.0084753 0.0998704 0.0272049
-0.0234359 0.0870706 0.135164
0.000621409 -0.0207025 0.14426
0.0127218 -0.0305832 -0.133824
-0.0871523 -0.0229065 -0.088593
0.00493972 0.206452 -0.0750731
0.0417155 0.109243 -0.127606
0.0180533 -0.0692542 -0.12248
0.0109862 -0.0907054 -0.108266
0.00348835 0.0768852 -0.111532
0.0262093 0.0570698 0.00614936
0.0507188 0.0611815 -0.0256402
0.000452747 -0.0121314 0.145897
0.0349477 0.0575163 0.000314867
0.00364028 0.204767 -0.0241107
0.0441468 0.0936215 -0.126021
-0.00048679 -0.0789217 0.102275
0.0516452 0.0570918 -0.0539829
0.0514522 0.0567761 -0.0543757
-0.0528006 0.050428 -0.0622938
-0.0255991 0.136454 -0.137398
-0.00829622 0.100404 0.0275872
0.0138771 0.0800626 -0.126935
0.000356419 0.138555 -0.130747
-0.00312837 0.0940858 -0.169368
0.031541 0.130336 -0.128702
-0.00951911 0.0899594 0.0203448
-0.0997832 -0.0201793 -0.0804684
0.00323061 0.0772074 -0.112452
0.0454493 0.0992814 -0.127644
-0.00088169 0.0641438 0.0905692
0.000528137 0.124468 -0.167467
0.00157695 0.0278635 -0.110811
-0.00844426 0.0813728 -0.128875
0.000869654 0.0808516 -0.123869
0.0497837 0.0605724 -0.0193871
0.0471343 0.060745 -0.0139676
-0.004292 0.128664 -0.151036
-0.04538 0.116643 -0.13321
-0.00319528 0.0891257 -0.14886
-0.0350495 0.127321 -0.135967
0.0284788 0.132621 -0.129485
0.0244709 -0.0104132 -0.128213
0.00306131 0.0774884 -0.113322
0.0178417 -0.0731278 -0.11905
0.00716715 -0.100198 -0.000691767
0.0851112 0.0144048 0.085056
0.0155622 -0.0981449 -0.081682
0.0110279 -0.100534 -0.0785135
0.0123057 0.0585022 0.00135692
0.0111434 -0.100549 -0.078133
0.00232068 0.101575 0.109388
-0.0387574 0.0535 -0.0780545
0.0110199 -0.0903743 -0.108586
-0.00815738 0.0425373 0.0382121
0.0310485 -0.00989223 -0.126637
0.0321548 -0.00980117 -0.126403
-0.0190965 0.0556176 -0.088636
-0.0673447 -0.0206138 -0.110302
1.52552e-05 0.0788091 0.09661
-0.0550562 -0.0184879 -0.122004
0.0473575 0.0517228 -0.0672865
-0.00456577 0.092308 -0.16106
0.0450884 0.0732185 0.122253
0.0125663 0.0812001 -0.127747
0.00717539 0.0940354 0.13438
-0.0908573 0.00250938 0.081629
-0.0316478 0.0784261 0.136065
-0.000915335 0.0948952 -0.177097
0.0887134 -0.00508949 -0.0887916
-0.0166798 0.0576087 0.00894049
0.0059605 -0.090616 0.073256
0.00731595 -0.0880272 0.0797347
-0.0436354 0.097415 -0.123059
0.00129905 0.123999 -0.174704
0.00836946 -0.100244 0.0274656
0.0696101 -0.0102479 -0.106577
-0.0532928 0.0514736 -0.0453605
-0.0383668 0.053499 -0.0783967
-0.0016135 0.101939 -0.179263
-0.0528411 0.0498775 -0.056337
-0.00801645 0.0431006 0.0422134
-0.00581274 0.109819 0.0311865
-4.05835e-05 0.052058 0.00508519
-0.0240131 0.0550089 -0.0860136
-0.116933 -0.0127831 -0.0291336
0.0157063 -0.0976863 -0.0820541
0.0756079 -0.00975136 -0.100416
0.00394303 0.207541 -0.0676581
-0.0475695 0.0519634 -0.0664581
-0.0457682 0.113926 -0.133187
-0.00925331 0.0815185 -0.128522
0.00320265 0.0484128 -0.0811976
-0.00353129 0.192978 0.0102497
-0.0851945 0.00460846 0.0983591
-0.0697331 -0.0209065 -0.108161
-0.00269332 0.194159 0.00816357
-0.0643524 -0.0203856 -0.113169
-0.0275696 0.0538306 -0.0846432
0.0512572 0.0616683 0.119192
-0.00191444 0.134028 -0.134203
0.0340482 0.0578017 0.000907577
0.0734065 0.0322032 0.100689
-0.00421787 0.0912187 -0.156209
0.0114414 -0.025193 -0.134851
0.0353635 0.0879339 -0.125455
0.00491622 0.0225076 -0.115341
-0.106817 -0.0205417 -0.0687691
-0.0760163 -0.0247259 -0.0991938
0.00360893 0.0709513 -0.102738
0.00161941 0.0789518 -0.118642
-0.00473186 0.11241 0.0317102
0.0732267 -0.010454 -0.102746
-0.00966885 0.085671 0.017961
-0.111976 -0.00790826 0.023789
0.0233966 0.136851 -0.130477
-0.111214 -0.019622 -0.0613427
0.0116644 -0.0997356 -0.0447387
0.0377153 0.12353 -0.128223
0.0354983 0.126469 -0.128661
-0.00102551 0.0492266 0.0728896
0.0255282 -0.0104156 -0.127965
-0.0481794 0.0518099 -0.0651981
-0.00171429 0.123682 0.0299313
-0.113891 -0.0145827 0.012441
-0.00182472 0.197515 0.00188562
-0.000276759 -0.0579536 0.12638
0.00521164 0.206023 -0.0770461
0.0451316 0.0522811 -0.0717612
-0.0464814 0.0522116 -0.068082
0.00612221 -0.0805522 0.0973053
0.000985706 0.146889 -0.128119
-0.0724079 0.019507 0.12311
-0.0158891 0.0553428 -0.0905828
-0.0182272 0.0556396 -0.0892027
-0.00657136 0.117543 -0.192991
-0.0166171 0.0555869 -0.0901129
0.0595711 -0.0101618 -0.113439
0.0171278 -0.0659483 -0.124857
2.7902e-05 0.0795772 0.0968847
0.00305041 0.204937 -0.0215966
-0.00432737 0.0914334 -0.157205
0.0270856 0.0485701 -0.0874578
0.0279087 0.133019 -0.129663
-0.115225 -0.018262 -0.0535911
-0.0158281 0.0827134 -0.129971
0.0118961 -0.100232 -0.0599886
0.0460991 0.0522365 -0.0695822
-0.00342067 0.116929 0.0320864
-0.111696 -0.00625662 0.0280546
-0.0124705 0.0419966 0.0173073
0.0478052 0.0611038 -0.015019
0.0179418 -0.0689301 -0.122761
0.0362582 0.0580116 -0.000974297
0.00189637 0.207276 -0.0488909
-0.0246685 0.0841001 -0.130481
-0.10731 -0.00275609 0.0392988
0.00739051 -0.102696 -0.00828676
-0.0575133 -0.018665 -0.12062
-0.0270971 0.0840596 -0.129717
0.00391971 0.207641 -0.0668896
0.000294636 0.0739829 0.0946602
-0.0300111 0.058864 0.00819037
0.00152748 -0.0365239 0.139423
-0.0364614 0.0586889 0.00180339
0.0474301 0.0524954 -0.0616877
-0.0555981 0.0522144 0.133362
-0.0982893 -0.0206334 -0.0820439
-0.0054869 0.180022 0.0218083
-0.00430274 0.128884 -0.15024
-0.0138543 0.0749159 0.0139702
-0.0302703 0.132222 -0.135439
0.00428339 0.0729184 -0.104511
0.112444 0.00280364 -0.0409779
-0.00285443 0.0529739 0.00604446
0.000573079 0.0136696 0.150095
0.00424604 0.0746962 -0.106831
-0.0314623 0.130962 -0.135427
-0.00953771 0.127969 -0.1882
-0.00934837 0.1272 -0.188764
0.0375299 0.0500191 -0.0804332
-0.116044 -0.0180068 -0.0501915
0.0127967 0.0812132 -0.12774
0.0152424 0.0947513 0.12688
-0.00209357 0.0526371 0.00559578
0.0351181 0.0486974 -0.0824881
0.0809724 -0.0081952 -0.0960081
-0.0112078 0.0803337 0.0156025
-0.0430654 -0.0177058 -0.123182
0.00046614 -0.00610879 -0.137726
-0.0225105 0.0837653 -0.130267
-0.0340542 0.12864 -0.135469
-0.0617392 -0.0198511 -0.115769
0.00490345 0.206628 -0.0732215
-0.0170738 0.0612485 0.00839096
-0.00143847 0.175322 -0.119223
-0.00172703 0.188028 -0.108292
-0.107783 -0.0208997 -0.0666288
-0.095638 -0.0204451 -0.0852989
-0.00240527 0.0449102 0.063214
0.00465719 0.207012 -0.0700806
0.087283 0.00749162 0.075625
0.0688819 -0.00988858 -0.107193
0.0493417 0.0611481 -0.0180714
-0.0925072 0.00206315 0.074188
-0.0120924 0.0782319 0.0149034
0.00363165 0.0495473 -0.081275
0.0201979 0.138863 -0.131064
0.00271693 0.193117 -0.0993311
0.0600609 -0.0101818 -0.113131
-0.0242841 -0.0107362 -0.130594
0.0436099 0.104949 -0.128305
0.00422886 0.0755886 -0.108404
-0.00469869 0.185908 0.0175278
-0.0335788 0.128995 -0.135326
0.0431506 0.0521688 -0.0751187
0.0289026 0.0478672 -0.086846
-0.0392659 0.122923 -0.135392
0.0299875 0.131281 -0.129059
-0.0387401 0.123539 -0.135586
0.0117383 -0.0994078 -0.0402337
-0.0271189 0.0538085 -0.0848837
-0.00160005 0.187028 -0.109364
0.101292 0.0124633 0.039083
-0.116724 -0.0168283 -0.0476478
-0.00417271 0.0909494 -0.15519
-0.00924362 0.0877819 0.0189805
0.000215872 0.0315226 -0.106704
-0.0370774 0.0898445 -0.127084
0.0258823 0.134705 -0.129778
-0.0766413 0.0160437 0.118461
0.0519025 0.0613346 -0.0293018
0.00062164 -0.0214129 0.144075
0.0076999 -0.10133 -0.0198054
0.103423 0.000291702 -0.0701075
0.0121103 0.0582263 0.00139371
0.046572 0.0538494 -0.0603824
0.0476035 0.0517707 -0.0662667
-0.0138492 0.0466002 0.0108892
0.00128787 0.124337 -0.175865
-0.00227401 0.127068 -0.157975
0.0509133 -0.00833994 -0.118369
-0.00231354 0.0945056 -0.171397
-0.0748468 0.0181436 0.120641
-0.106532 -0.020415 -0.0694283
0.0139296 -0.0113569 -0.129408
-0.116687 -0.0132748 -0.0205232
0.0094355 0.007763 -0.127009
0.0965859 -0.00227803 -0.0800959
0.0446274 0.101988 -0.128633
0.000973693 0.144899 -0.128566
-0.00463771 0.0918387 -0.15912
0.11083 0.00145917 -0.0563623
-0.00214548 0.0456684 0.0649148
-0.00171025 0.100895 -0.179186
0.0530401 0.061645 -0.0435746
-0.00205618 0.0946438 -0.172262
0.00961862 0.00294446 -0.129854
-0.0103157 0.0520073 -0.0949564
0.0964928 0.0056046 0.0431755
-0.00426628 0.129343 -0.14878
0.00735938 -0.0113741 -0.130656
-0.0015855 0.185529 -0.111044
0.0446335 0.102875 -0.128453
-6.68205e-05 0.0574777 0.0853239
0.0443245 0.103521 -0.128488
-0.000103497 -0.0623744 0.121516
-0.0460729 0.109957 -0.132328
-0.00290853 0.132483 -0.136737
0.00475232 0.0524747 0.149028
0.00126022 0.0459266 -0.0829492
-0.000428416 -0.0570484 0.127289
0.00825641 0.0117017 -0.124463
-0.109401 -0.00560889 0.0335608
-0.113283 -0.013741 0.0145535
0.0169882 -0.0752562 -0.117343
-0.0977759 -0.0206261 -0.0826762
-0.00933419 0.125439 0.034238
-0.0046308 0.0920702 -0.160084
-0.0462609 0.108676 -0.131466
0.026333 0.0838402 -0.127243
0.000356087 0.0892556 0.100386
-0.111846 -0.00968064 0.0220284
-0.117628 -0.0159981 -0.0437446
-0.0458179 0.0583996 -0.00902366
-0.00147696 0.12662 -0.15931
0.0133056 0.0488893 -0.0940498
-0.0579178 0.0489647 0.132096
-0.029019 0.0583413 0.00880535
-0.0369352 0.0534509 -0.0794893
-0.00706756 0.153672 0.0319878
-0.0917378 -0.0210773 -0.0872536
-0.0338131 0.0583248 0.00412278
0.0117352 -0.100157 -0.0660003
0.0035301 0.0525921 -0.0835353
0.016321 -0.0967241 -0.0847732
0.0107672 -0.0938049 -0.103236
-0.0214448 0.0554531 -0.087103
0.0286896 0.0853272 -0.127062
-0.0300947 0.0800134 0.136005
0.0347026 0.0486313 -0.082683
-0.0114424 0.0528958 -0.0941811
-0.00180978 0.18899 -0.107233
-0.0403021 0.121445 -0.135403
-0.0455586 0.104777 -0.129005
-0.00989173 0.0417103 0.0292671
-0.00439792 0.187509 0.0161528
0.0129484 -0.0331002 -0.133322
-0.00223218 0.190436 -0.105615
-0.0367044 0.125296 -0.136331
0.0848618 0.01481 0.0857646
-0.0360352 0.0745567 0.136847
0.00339692 0.0640094 -0.0948391
-0.00379011 0.127758 -0.155769
-0.00447226 0.092548 -0.162116
0.0396991 0.0585955 -0.00321913
-0.00433368 0.0927562 -0.163135
0.0528368 -0.00875872 -0.117469
0.038952 0.120822 -0.128026
0.0392515 0.118512 -0.127761
0.0306773 0.0861909 -0.126835
-0.0337199 0.0540067 -0.081266
0.00974459 0.0568266 0.00209318
0.00340207 -0.0968331 0.0549905
-0.0450881 0.104105 -0.128631
-0.00711046 0.147664 0.0327128
-0.000304846 0.137359 -0.131393
-0.000237988 -0.0616351 0.122415
-0.0766128 0.0161619 0.11876
0.0393498 0.118959 -0.12788
-0.00572417 0.116295 -0.19313
-0.0929004 0.00182559 0.0726703
-0.0534064 0.0515879 -0.0447644
0.111203 0.00264659 -0.0511347
-0.00670279 0.119504 -0.192486
-0.0535964 0.0517461 -0.043924
-0.0341436 -0.0131938 -0.127468
-0.0523819 0.0551204 -0.0232086
0.0970053 0.00504195 0.0433152
-0.0261202 -0.0112093 -0.130242
-0.0251313 -0.0108763 -0.130438
-0.00641379 0.0432659 0.0499024
-0.0774273 -0.0248418 -0.0972192
-0.00984658 0.0815948 -0.128415
0.0115964 -0.100165 -0.0564619
-0.00156058 0.183901 -0.112609
-0.110636 -0.00561159 0.0313064
0.0945706 0.00574373 0.0515489
0.0109077 -0.100507 -0.0791032
-0.00444977 0.188994 0.0146473
0.00373547 0.07656 -0.110693
0.010819 -0.094021 -0.10264
0.0182321 -0.0715514 -0.120642
-0.107515 -0.00418179 0.0370829
-0.00352794 0.131157 -0.140982
0.0860077 0.0122648 0.0816366
0.035851 0.0575554 -0.000248982
0.0213749 0.0821764 -0.127502
0.0255302 0.135223 -0.129769
-0.0363557 0.074144 0.137005
-0.0528541 0.0542393 0.133903
0.0105482 -0.0988912 -0.0258143
0.00901624 -0.0975895 0.0107352
0.0468967 0.0605075 -0.0134955
0.00298448 0.192863 -0.100196
-0.00430206 0.129688 -0.147726
-0.00987404 0.0520494 -0.0952076
-0.00294163 0.131566 -0.138894
0.00051618 0.139253 -0.130471
0.00169314 0.205104 -0.0176945
-0.0218207 0.0836591 -0.130157
0.0429403 0.0920153 -0.125428
0.109893 -0.00662813 -0.0300131
-0.0346837 0.0760909 0.136303
-0.0368575 0.0896303 -0.127307
-0.0277372 0.0841678 -0.129654
0.0705057 0.0356189 0.104319
0.000443375 -0.0160424 0.145299
-0.00235174 0.0527757 0.00556718
-0.0196972 0.0896535 0.133899
-0.035403 0.0884957 -0.128708
-0.0487447 0.0587978 0.134476
-0.00179555 0.188553 -0.107729
-0.0694295 0.0243252 0.126053
0.00472301 0.205282 -0.0804338
0.00470696 0.205101 -0.0811866
-0.0270969 -0.0116827 -0.130069
-0.0667945 0.0299034 0.128595
-0.00137874 0.0626745 0.0895924
-0.0451467 0.104142 -0.128273
-0.0267825 0.0538693 -0.0850723
0.00706524 0.0888816 0.138411
0.0114875 -0.0245871 -0.134834
0.00415857 0.0725233 -0.104111
0.00761551 -0.0874548 0.0810578
-0.0530151 0.0504911 -0.0608971
0.0350397 0.127102 -0.128531
0.0330826 0.129151 -0.128596
0.0471589 0.0525711 -0.0619459
0.0858552 0.0127854 0.0825595
-0.0806096 -0.024625 -0.0936884
0.00228315 0.0781205 -0.115745
0.0291436 0.0551619 0.00280354
0.00077411 0.149959 -0.127482
0.0462639 0.0521909 -0.0690104
-0.00372675 0.0899483 -0.151873
-0.0572072 -0.0185614 -0.120836
-0.0238245 0.137824 -0.137742
-0.074174 0.0184375 0.121203
0.0885893 0.00556401 0.0698079
-0.00293384 0.132117 -0.137495
-0.00964332 0.0416948 0.0302841
0.00343829 0.194743 -0.0976382
-0.0494393 0.0579822 0.134352
-0.00337981 0.0895782 -0.150386
0.00226925 0.101162 0.108826
-0.032435 0.0777268 0.136185
0.0109531 -0.100481 -0.0754337
-0.0259341 0.136046 -0.137197
0.00440436 0.04739 0.150402
-0.0243586 0.137616 -0.137664
0.10937 -0.00743745 -0.0278408
-0.0342486 0.0870603 -0.129369
0.0475732 -0.00959235 -0.123549
0.109051 -0.0074364 -0.0263829
0.00109966 -0.039092 0.139079
-0.00519336 0.11383 -0.193117
0.0170828 -0.0656025 -0.125116
0.079403 0.02243 0.0947107
0.111726 -0.00159151 -0.035701
-0.049039 0.0526369 -0.0635083
-0.0528246 0.0550676 -0.0263294
0.0167526 -0.0638817 -0.126217
-0.117054 -0.0132205 -0.027319
0.0077864 -0.102465 -0.0140534
0.042261 0.108124 -0.127651
-0.0524635 0.0550451 -0.0237443
0.0161275 -0.0972705 -0.0822031
0.00636766 -0.0806464 0.0960713
0.00346242 0.052269 0.00410313
0.0960838 -0.00259932 -0.0806815
0.00673656 0.0555884 0.0030937
-0.000882497 0.0498287 0.0739415
-0.017145 0.0594401 0.0083623
-0.0728618 0.0190709 0.122563
-0.110923 -0.0198324 -0.0619709
-0.000665804 0.0507012 0.0754976
0.0616439 0.036684 0.110711
-0.00433558 0.188053 0.0156095
0.0447624 0.0737784 0.119453
0.00187322 0.207133 -0.0483193
0.000917311 0.123842 -0.171837
0.097451 0.00474188 0.04322
-0.03559 0.126503 -0.136167
-0.0134162 0.0454657 0.0116941
-0.0418113 0.0699029 0.136339
-0.0717084 0.0203721 0.123827
0.0107268 -0.0935766 -0.104076
0.109425 0.00137149 -0.0599004
-0.00103919 0.124431 0.0294552
0.0392817 0.0585246 -0.00291442
0.0726521 -0.0106302 -0.103554
-0.00141982 0.123876 0.0296515
-0.00920629 0.0951371 0.130155
-0.00403907 0.0903587 -0.153324
-0.00800784 0.139717 0.0331871
-0.00841299 0.0954871 0.129925
-0.00672712 0.104989 0.0299732
-0.00407647 0.127877 -0.154995
0.0261463 0.0928561 0.125802
-0.0070614 0.102767 0.0290922
5.05069e-05 0.0854198 0.0991881
-0.0026963 0.132904 -0.135989
-0.0297309 0.059053 0.0083263
-0.10836 -0.00482543 0.0351316
0.06066 0.0385641 0.111311
0.00312153 0.0685361 -0.100475
-0.00970826 0.0816893 -0.128519
0.00324051 0.194306 -0.0980077
0.000330817 0.0195711 0.151226
0.0758744 0.0267812 0.0984765
-0.00128047 0.0485138 0.071446
0.00826835 -0.100133 0.0287538
0.000396861 0.0747707 0.0949888
-0.0564659 0.042516 0.13177
0.018192 -0.0701798 -0.121761
0.00335542 0.202983 -0.0881124
-0.0592835 0.0482027 0.131262
0.0360029 0.0880716 -0.125197
-0.0459501 0.111191 -0.132428
0.000538056 0.124221 -0.168824
-0.0744975 0.0183388 0.120918
-0.0459188 0.111735 -0.132524
0.00119824 0.1238 -0.173948
0.000822296 0.0516892 0.00480674
0.0446041 0.0522452 -0.0728923
0.000947423 -0.10099 0.03593
0.000371404 -0.00906929 0.146354
-0.00216872 0.19884 -0.000586584
0.094019 0.00575062 0.0534903
-0.0905951 0.00250195 0.0826345
0.0064323 0.0706313 0.14355
0.0089606 -0.0976969 0.00828905
0.00150265 -0.031064 0.140074
0.0493032 0.0555022 -0.0572177
0.105838 0.00697669 0.00985177
-0.0373517 0.0735987 0.137043
0.000561966 0.141217 -0.12965
-0.0139409 0.092593 0.131852
