ply
format ascii 1.0
element vertex 1022
property float x
property float y
property float z
end_header
-0.456576 0.69082 -0.516659
-0.457312 0.688731 -0.516663
-0.446589 0.715403 -0.516961
-0.447855 0.709937 -0.516593
-0.458101 0.686751 -0.516609
-0.449121 0.70475 -0.516796
-0.511635 0.715136 -0.527329
-0.501007 0.716157 -0.521371
-0.497722 0.610014 -0.437757
-0.471209 0.639677 -0.505357
-0.477727 0.635373 -0.503443
-0.474629 0.636805 -0.504454
-0.473907 0.637207 -0.504673
-0.479133 0.718227 -0.517003
-0.472295 0.638422 -0.504999
-0.475038 0.6366 -0.504147
-0.499011 0.610491 -0.437758
-0.450182 0.761328 -0.379905
-0.459819 0.720019 -0.357977
-0.489295 0.711964 -0.349922
-0.436735 0.659363 -0.381615
-0.482982 0.71361 -0.351542
-0.456211 0.722175 -0.359703
-0.426243 0.707809 -0.380494
-0.457388 0.721547 -0.359096
-0.433012 0.668235 -0.375071
-0.466534 0.717527 -0.356045
-0.420064 0.72525 -0.400029
-0.472311 0.716122 -0.354742
-0.45869 0.720877 -0.358483
-0.4498 0.726546 -0.363571
-0.427132 0.689736 -0.383186
-0.430264 0.676221 -0.384198
-0.433159 0.668552 -0.374503
-0.417393 0.720586 -0.417839
-0.455624 0.722815 -0.360284
-0.464409 0.718217 -0.35666
-0.436956 0.745233 -0.379615
-0.448952 0.727104 -0.364174
-0.462083 0.722727 -0.517999
-0.421619 0.725907 -0.396333
-0.483546 0.796262 -0.435499
-0.471528 0.789789 -0.42183
-0.529512 0.804968 -0.458613
-0.456618 0.749693 -0.512892
-0.456219 0.748286 -0.513626
-0.456706 0.754007 -0.509343
-0.428616 0.732399 -0.488903
-0.429335 0.732431 -0.490702
-0.417662 0.723342 -0.413428
-0.41817 0.726985 -0.456502
-0.443187 0.728592 -0.367695
-0.450964 0.729955 -0.517646
-0.425782 0.730871 -0.481331
-0.425076 0.730651 -0.479691
-0.464577 0.769106 -0.491133
-0.478233 0.779578 -0.480949
-0.459934 0.765762 -0.494802
-0.456565 0.724257 -0.51565
-0.46641 0.722008 -0.517899
-0.450761 0.700618 -0.515913
-0.505741 0.80078 -0.469299
-0.51779 0.798091 -0.44766
-0.514367 0.803463 -0.455964
-0.456033 0.746934 -0.514432
-0.513683 0.80359 -0.456245
-0.514746 0.802809 -0.457621
-0.51725 0.803235 -0.457148
-0.521969 0.806394 -0.457147
-0.514459 0.803114 -0.458375
-0.519649 0.796783 -0.442168
-0.50189 0.800113 -0.471352
-0.501111 0.798949 -0.474636
-0.503238 0.800414 -0.470522
-0.577584 0.773407 -0.484071
-0.564588 0.789675 -0.472215
-0.519299 0.796961 -0.443926
-0.58456 0.754013 -0.497598
-0.528756 0.716202 -0.532912
-0.526797 0.715662 -0.532717
-0.530566 0.71688 -0.533261
-0.467537 0.66774 -0.518525
-0.539848 0.715024 -0.532964
-0.437397 0.733985 -0.504138
-0.439851 0.733407 -0.505919
-0.456902 0.762399 -0.498063
-0.516234 0.713976 -0.529624
-0.593012 0.705388 -0.512562
-0.59678 0.699818 -0.510432
-0.588477 0.714403 -0.521115
-0.468771 0.720536 -0.517995
-0.605506 0.705714 -0.476838
-0.597817 0.709378 -0.49808
-0.431966 0.733049 -0.495488
-0.592832 0.706414 -0.510327
-0.592719 0.705858 -0.511239
-0.6019 0.708325 -0.489135
-0.589397 0.716635 -0.521071
-0.466587 0.673922 -0.518907
-0.587579 0.717566 -0.522225
-0.588673 0.717044 -0.521755
-0.593521 0.707952 -0.507443
-0.604725 0.70637 -0.480185
-0.595968 0.71401 -0.507971
-0.595535 0.717744 -0.507267
-0.595766 0.692978 -0.511112
-0.581901 0.718166 -0.523765
-0.599577 0.708739 -0.494834
-0.429363 0.681902 -0.383552
-0.41759 0.720166 -0.42265
-0.459775 0.781713 -0.409191
-0.51799 0.798855 -0.449958
-0.542191 0.801703 -0.463206
-0.45178 0.698577 -0.515988
-0.460986 0.76894 -0.396368
-0.461288 0.776598 -0.403473
-0.473367 0.790807 -0.422981
-0.426337 0.702819 -0.381311
-0.558065 0.794141 -0.468076
-0.555537 0.795636 -0.46657
-0.47032 0.788755 -0.420861
-0.524342 0.794169 -0.433461
-0.42527 0.723445 -0.383823
-0.500171 0.803086 -0.448085
-0.50096 0.804098 -0.449456
-0.444854 0.755013 -0.380243
-0.57416 0.735353 -0.383181
-0.59898 0.709017 -0.495828
-0.590791 0.661526 -0.505441
-0.443966 0.728392 -0.367346
-0.425229 0.723475 -0.389032
-0.529929 0.703352 -0.348701
-0.531606 0.614299 -0.450209
-0.521557 0.706962 -0.347672
-0.427881 0.732079 -0.486376
-0.593148 0.701567 -0.377584
-0.494224 0.801049 -0.442686
-0.47441 0.777617 -0.481706
-0.461242 0.766297 -0.494433
-0.466928 0.669968 -0.518694
-0.500939 0.799155 -0.473992
-0.596011 0.696438 -0.510929
-0.572901 0.62952 -0.484117
-0.542845 0.700993 -0.351523
-0.580147 0.76663 -0.489214
-0.417647 0.72442 -0.447354
-0.460766 0.722543 -0.517656
-0.475285 0.714859 -0.353599
-0.562982 0.656389 -0.398847
-0.604731 0.698321 -0.398462
-0.598726 0.701267 -0.380962
-0.562608 0.697597 -0.361565
-0.592612 0.703135 -0.375318
-0.557783 0.761568 -0.395613
-0.580894 0.699514 -0.3689
-0.581654 0.70026 -0.369088
-0.489356 0.78563 -0.477383
-0.592537 0.702561 -0.375204
-0.585574 0.701746 -0.369718
-0.4485 0.707502 -0.516684
-0.464122 0.723328 -0.517988
-0.532639 0.703525 -0.348933
-0.584348 0.684527 -0.380874
-0.582566 0.711711 -0.374593
-0.580499 0.678457 -0.387508
-0.591813 0.695184 -0.375231
-0.586983 0.702323 -0.369869
-0.546022 0.615117 -0.461431
-0.592046 0.695232 -0.375828
-0.610146 0.702343 -0.44495
-0.582165 0.71224 -0.374531
-0.583989 0.705299 -0.378101
-0.595343 0.685446 -0.5111
-0.581697 0.71253 -0.374369
-0.587561 0.690067 -0.378826
-0.441163 0.751448 -0.380771
-0.47253 0.774931 -0.485499
-0.607215 0.700479 -0.409688
-0.57848 0.72368 -0.379153
-0.432275 0.737405 -0.379574
-0.578051 0.724514 -0.379623
-0.592725 0.702061 -0.375673
-0.531704 0.613262 -0.45526
-0.588177 0.702334 -0.369866
-0.593346 0.701186 -0.377797
-0.604366 0.698498 -0.396972
-0.468226 0.658416 -0.515551
-0.476011 0.636061 -0.50363
-0.59128 0.73146 -0.504857
-0.550106 0.641193 -0.408616
-0.502955 0.710639 -0.348
-0.459957 0.631881 -0.40391
-0.451566 0.762309 -0.382235
-0.43572 0.733163 -0.50252
-0.608907 0.700111 -0.421577
-0.538465 0.624702 -0.422847
-0.434568 0.663212 -0.379003
-0.43964 0.654569 -0.385024
-0.511824 0.802438 -0.461214
-0.592763 0.707281 -0.509808
-0.480861 0.633801 -0.501585
-0.562382 0.791341 -0.470767
-0.418179 0.724567 -0.408911
-0.564784 0.658201 -0.398454
-0.575509 0.670786 -0.392901
-0.590227 0.692914 -0.378317
-0.583865 0.705096 -0.374386
-0.584038 0.705034 -0.37502
-0.490675 0.626639 -0.483644
-0.528442 0.611797 -0.442627
-0.518234 0.713638 -0.530508
-0.608811 0.702767 -0.456131
-0.502442 0.621197 -0.475219
-0.575954 0.671744 -0.391838
-0.437704 0.657704 -0.382766
-0.540265 0.62934 -0.416605
-0.569381 0.663244 -0.396944
-0.504599 0.612027 -0.435554
-0.537879 0.623457 -0.424544
-0.535836 0.621068 -0.428039
-0.580829 0.717429 -0.376575
-0.534763 0.717207 -0.53286
-0.531926 0.613857 -0.452579
-0.452857 0.696582 -0.516025
-0.546148 0.800096 -0.464579
-0.520009 0.713967 -0.531264
-0.421193 0.725711 -0.397311
-0.525264 0.715845 -0.532376
-0.515073 0.607101 -0.437232
-0.466243 0.627657 -0.408504
-0.442886 0.728941 -0.367995
-0.514056 0.613239 -0.462928
-0.592182 0.695163 -0.376593
-0.517241 0.608001 -0.43352
-0.417531 0.721959 -0.439501
-0.607716 0.699855 -0.41373
-0.486548 0.612754 -0.429924
-0.607417 0.700379 -0.411633
-0.471438 0.642283 -0.507155
-0.532757 0.617261 -0.434394
-0.494778 0.788102 -0.468979
-0.517897 0.797825 -0.446927
-0.467285 0.721142 -0.517941
-0.521954 0.60621 -0.453644
-0.502824 0.716649 -0.521909
-0.538454 0.613809 -0.455111
-0.540655 0.61432 -0.457805
-0.514475 0.611309 -0.460307
-0.555722 0.69836 -0.358745
-0.537436 0.62262 -0.426001
-0.542599 0.614559 -0.459454
-0.547651 0.615314 -0.462619
-0.584221 0.705867 -0.377703
-0.479989 0.633368 -0.496086
-0.57506 0.733491 -0.382741
-0.525664 0.80573 -0.457752
-0.457381 0.725696 -0.516415
-0.505978 0.618407 -0.470509
-0.583806 0.704572 -0.378308
-0.534282 0.785035 -0.417264
-0.50556 0.619352 -0.4718
-0.565779 0.623904 -0.478321
-0.515875 0.608761 -0.45719
-0.48131 0.713583 -0.352118
-0.589293 0.701813 -0.36986
-0.450704 0.726083 -0.362928
-0.45502 0.7222 -0.514154
-0.523104 0.705833 -0.347911
-0.588328 0.690764 -0.378641
-0.586401 0.65139 -0.501403
-0.426374 0.699731 -0.381915
-0.456111 0.745601 -0.515221
-0.45618 0.744471 -0.515937
-0.579509 0.720563 -0.377114
-0.532382 0.7865 -0.419295
-0.591835 0.694799 -0.377763
-0.466579 0.672353 -0.518944
-0.545888 0.776115 -0.406529
-0.584509 0.718798 -0.523117
-0.53684 0.621878 -0.427188
-0.55357 0.714572 -0.531119
-0.584169 0.705671 -0.375967
-0.45687 0.755134 -0.508015
-0.466095 0.784771 -0.414726
-0.598457 0.709165 -0.496816
-0.569191 0.626275 -0.480588
-0.429992 0.732513 -0.491878
-0.566339 0.696936 -0.363214
-0.480309 0.633779 -0.499271
-0.47417 0.621269 -0.418609
-0.610299 0.700445 -0.42996
-0.546577 0.637426 -0.410147
-0.542003 0.778857 -0.409425
-0.511881 0.614592 -0.465191
-0.610281 0.702022 -0.443406
-0.584539 0.64412 -0.491266
-0.449236 0.703748 -0.516382
-0.573009 0.737988 -0.384451
-0.535735 0.717247 -0.532858
-0.582951 0.718641 -0.523517
-0.472235 0.622418 -0.417159
-0.53048 0.614645 -0.439501
-0.48833 0.611155 -0.432892
-0.481831 0.617284 -0.42447
-0.496033 0.623386 -0.478444
-0.567398 0.624966 -0.479217
-0.534399 0.62003 -0.42888
-0.531509 0.613357 -0.454438
-0.503268 0.612196 -0.435747
-0.502441 0.612026 -0.436068
-0.531244 0.614666 -0.442096
-0.488523 0.799487 -0.440354
-0.497847 0.801957 -0.445243
-0.59079 0.734543 -0.503614
-0.577277 0.632859 -0.486552
-0.564284 0.623059 -0.477327
-0.610429 0.701329 -0.432823
-0.509946 0.713926 -0.526539
-0.587195 0.689586 -0.378777
-0.480958 0.618633 -0.422629
-0.60699 0.700086 -0.408138
-0.484864 0.79747 -0.437341
-0.540181 0.780327 -0.411463
-0.449669 0.702439 -0.515618
-0.417569 0.719678 -0.431968
-0.457086 0.763385 -0.496762
-0.42659 0.692964 -0.383058
-0.532116 0.61359 -0.454839
-0.506103 0.611661 -0.435793
-0.457678 0.757107 -0.505717
-0.530384 0.787535 -0.420932
-0.593659 0.725744 -0.505446
-0.605827 0.705666 -0.474457
-0.506385 0.800916 -0.468443
-0.603522 0.707617 -0.483958
-0.539198 0.702215 -0.350228
-0.564965 0.712639 -0.52822
-0.469061 0.648589 -0.510123
-0.609251 0.699992 -0.423689
-0.451565 0.761968 -0.383011
-0.607073 0.704608 -0.466277
-0.480516 0.718188 -0.517056
-0.438986 0.749642 -0.380773
-0.42514 0.725229 -0.390103
-0.417942 0.72625 -0.45461
-0.467036 0.770823 -0.489414
-0.468311 0.662615 -0.51742
-0.591118 0.694601 -0.374289
-0.585575 0.749059 -0.499366
-0.539563 0.627898 -0.418079
-0.57876 0.633686 -0.486359
-0.56179 0.755621 -0.392481
-0.539466 0.626623 -0.420501
-0.469385 0.653115 -0.513233
-0.520323 0.796805 -0.43897
-0.543013 0.778146 -0.408537
-0.479267 0.6348 -0.503118
-0.523837 0.716116 -0.532177
-0.480483 0.634128 -0.502464
-0.510422 0.615269 -0.466265
-0.441323 0.650219 -0.3889
-0.476209 0.620772 -0.419299
-0.440312 0.652543 -0.386924
-0.424798 0.726495 -0.386237
-0.539317 0.626863 -0.419573
-0.467833 0.626394 -0.410512
-0.469193 0.62518 -0.412768
-0.516018 0.801772 -0.456684
-0.520185 0.796634 -0.440043
-0.51523 0.607301 -0.435603
-0.578602 0.676299 -0.388966
-0.527342 0.703707 -0.348444
-0.488287 0.628361 -0.486274
-0.4894 0.627468 -0.484881
-0.473649 0.715429 -0.354136
-0.606351 0.705085 -0.47163
-0.586274 0.718232 -0.522604
-0.432901 0.668556 -0.382764
-0.432947 0.667057 -0.376613
-0.569972 0.696758 -0.364536
-0.427893 0.68691 -0.383185
-0.485185 0.713451 -0.350971
-0.514454 0.612425 -0.46173
-0.454375 0.637137 -0.398268
-0.455437 0.635949 -0.399176
-0.507581 0.709321 -0.34735
-0.610367 0.700886 -0.431351
-0.456919 0.634381 -0.400675
-0.430617 0.731633 -0.379161
-0.425141 0.721795 -0.386837
-0.475988 0.792072 -0.4256
-0.425123 0.721872 -0.386021
-0.572278 0.782522 -0.475814
-0.417525 0.720155 -0.421234
-0.425184 0.72224 -0.385278
-0.541349 0.779408 -0.41034
-0.525425 0.79264 -0.43101
-0.587818 0.69002 -0.378936
-0.585241 0.686168 -0.379854
-0.558741 0.697456 -0.360135
-0.43376 0.732412 -0.498244
-0.500066 0.611488 -0.436943
-0.560438 0.697571 -0.360802
-0.55669 0.714233 -0.530197
-0.582634 0.759305 -0.495092
-0.544258 0.700815 -0.352358
-0.512046 0.802624 -0.459975
-0.573215 0.697824 -0.365933
-0.432327 0.667361 -0.382835
-0.496391 0.610032 -0.43719
-0.555412 0.714505 -0.530593
-0.456847 0.750901 -0.511934
-0.510719 0.610417 -0.43593
-0.518517 0.609047 -0.431106
-0.576975 0.727736 -0.380816
-0.518022 0.60821 -0.43282
-0.419328 0.729004 -0.461442
-0.451066 0.735941 -0.515926
-0.605724 0.70562 -0.475259
-0.511816 0.708507 -0.347343
-0.604338 0.707009 -0.481103
-0.511636 0.608697 -0.437572
-0.427149 0.71475 -0.380011
-0.606866 0.704475 -0.468015
-0.544601 0.777076 -0.40756
-0.584882 0.703801 -0.379973
-0.552553 0.69906 -0.356889
-0.593222 0.701319 -0.377179
-0.551126 0.698914 -0.356007
-0.558815 0.760026 -0.394817
-0.487302 0.712825 -0.350458
-0.470486 0.623969 -0.415064
-0.579094 0.698778 -0.368174
-0.558971 0.651614 -0.402569
-0.496592 0.711571 -0.348889
-0.495979 0.790474 -0.471141
-0.464189 0.629135 -0.406812
-0.501248 0.61187 -0.436353
-0.560102 0.757718 -0.393666
-0.443536 0.730624 -0.368703
-0.448153 0.727578 -0.36481
-0.608393 0.699774 -0.418563
-0.44907 0.759959 -0.379647
-0.533023 0.61677 -0.437639
-0.513855 0.70877 -0.3474
-0.525062 0.704481 -0.348233
-0.555257 0.618249 -0.469716
-0.434065 0.740158 -0.379235
-0.577502 0.725979 -0.380184
-0.443859 0.732023 -0.369098
-0.425368 0.723222 -0.383539
-0.461238 0.719145 -0.357542
-0.462745 0.718472 -0.357097
-0.433845 0.66444 -0.378538
-0.451526 0.762054 -0.383899
-0.571559 0.66592 -0.395468
-0.57886 0.72281 -0.378656
-0.454618 0.723689 -0.360886
-0.583048 0.682636 -0.384773
-0.559593 0.759029 -0.394673
-0.42992 0.725751 -0.378702
-0.422442 0.725833 -0.393717
-0.592521 0.703166 -0.375101
-0.462378 0.783125 -0.411346
-0.417701 0.719448 -0.429597
-0.531099 0.71668 -0.533189
-0.443102 0.647745 -0.390713
-0.553471 0.768024 -0.399151
-0.528661 0.612699 -0.445862
-0.528513 0.612266 -0.444508
-0.566907 0.787428 -0.473905
-0.539097 0.626042 -0.421355
-0.505182 0.619977 -0.472882
-0.459904 0.768455 -0.394723
-0.504147 0.716444 -0.522416
-0.542228 0.715327 -0.532576
-0.538765 0.802773 -0.461784
-0.489003 0.718963 -0.517605
-0.517234 0.607962 -0.456168
-0.558685 0.712265 -0.529828
-0.596645 0.709327 -0.500165
-0.537413 0.782624 -0.41446
-0.601008 0.708843 -0.491099
-0.603188 0.707186 -0.485707
-0.515177 0.802558 -0.457201
-0.607672 0.704056 -0.462218
-0.450766 0.731797 -0.516926
-0.46096 0.682387 -0.516847
-0.608246 0.699314 -0.417375
-0.601447 0.708729 -0.489997
-0.4751 0.719228 -0.516714
-0.422008 0.725965 -0.395197
-0.469274 0.646194 -0.50874
-0.424559 0.72839 -0.387897
-0.468256 0.665788 -0.518443
-0.531372 0.787075 -0.420085
-0.588542 0.656408 -0.503588
-0.487386 0.629121 -0.487506
-0.589626 0.658999 -0.504671
-0.43068 0.732725 -0.492951
-0.430973 0.673959 -0.384411
-0.580125 0.719149 -0.376796
-0.461974 0.630679 -0.40529
-0.531612 0.614965 -0.442987
-0.422215 0.729588 -0.471948
-0.479515 0.780178 -0.480419
-0.429216 0.72286 -0.378999
-0.609119 0.702399 -0.453925
-0.532301 0.613886 -0.453366
-0.515882 0.80064 -0.45439
-0.421297 0.729927 -0.469176
-0.513772 0.803489 -0.457662
-0.549452 0.798689 -0.465178
-0.51454 0.802962 -0.45795
-0.456948 0.72296 -0.515295
-0.51794 0.708811 -0.347422
-0.513126 0.803322 -0.457042
-0.59219 0.667505 -0.507304
-0.522226 0.795955 -0.436909
-0.524858 0.793252 -0.432117
-0.481162 0.633109 -0.495427
-0.554327 0.647255 -0.403505
-0.438786 0.656202 -0.38367
-0.500085 0.621915 -0.476342
-0.595688 0.68926 -0.511184
-0.43798 0.747536 -0.38017
-0.57909 0.721828 -0.377802
-0.516806 0.799763 -0.45213
-0.457506 0.774231 -0.398539
-0.549505 0.615829 -0.464436
-0.465622 0.769742 -0.490231
-0.490455 0.800352 -0.441128
-0.541408 0.631139 -0.415266
-0.535985 0.80352 -0.460812
-0.417712 0.719786 -0.427629
-0.444797 0.728406 -0.366857
-0.555041 0.765591 -0.3979
-0.533212 0.804189 -0.459627
-0.518736 0.797353 -0.44552
-0.567935 0.74803 -0.388461
-0.434411 0.732302 -0.499897
-0.597217 0.709484 -0.499178
-0.461032 0.768047 -0.395486
-0.531409 0.613118 -0.455635
-0.432128 0.672335 -0.384089
-0.468047 0.660802 -0.516491
-0.561894 0.655201 -0.399655
-0.494078 0.717108 -0.519101
-0.454123 0.694657 -0.516145
-0.585289 0.643681 -0.490152
-0.471352 0.774223 -0.48645
-0.51997 0.708103 -0.347475
-0.443291 0.729958 -0.368515
-0.535808 0.783872 -0.415941
-0.505047 0.715149 -0.523229
-0.543093 0.633128 -0.413818
-0.594292 0.678642 -0.509815
-0.532469 0.613566 -0.454393
-0.420299 0.72987 -0.46516
-0.419832 0.729518 -0.46357
-0.585644 0.704539 -0.380216
-0.589408 0.692617 -0.378146
-0.602326 0.7078 -0.488364
-0.602802 0.70725 -0.487162
-0.482341 0.718371 -0.517037
-0.417892 0.724654 -0.410507
-0.575392 0.778327 -0.478249
-0.600184 0.70835 -0.493567
-0.594832 0.681967 -0.510682
-0.560376 0.792698 -0.469442
-0.494589 0.624212 -0.479728
-0.447346 0.757906 -0.37989
-0.417638 0.723433 -0.445013
-0.589649 0.716746 -0.521083
-0.425302 0.722629 -0.384366
-0.419623 0.72514 -0.401543
-0.56621 0.713169 -0.52785
-0.61045 0.701891 -0.439771
-0.417706 0.725123 -0.449016
-0.526933 0.791094 -0.428122
-0.451784 0.725573 -0.362243
-0.435945 0.743108 -0.379207
-0.455466 0.742579 -0.516252
-0.448834 0.703939 -0.515466
-0.457051 0.759031 -0.502727
-0.5842 0.70609 -0.376977
-0.457482 0.764196 -0.49577
-0.576712 0.716472 -0.525478
-0.594262 0.708128 -0.505687
-0.483198 0.632323 -0.491702
-0.465783 0.677183 -0.518226
-0.568432 0.746669 -0.387651
-0.531395 0.613728 -0.451601
-0.552554 0.797141 -0.465635
-0.527329 0.790264 -0.426154
-0.577969 0.772446 -0.484757
-0.583706 0.683271 -0.38401
-0.578885 0.770303 -0.486244
-0.578413 0.771782 -0.484832
-0.420935 0.730025 -0.467552
-0.417373 0.721071 -0.416365
-0.533022 0.716786 -0.532971
-0.4611 0.768411 -0.396073
-0.610393 0.701793 -0.441649
-0.425192 0.723771 -0.384242
-0.602443 0.699194 -0.386479
-0.512828 0.715957 -0.527889
-0.434903 0.741362 -0.379097
-0.58332 0.703603 -0.379601
-0.509842 0.80202 -0.463875
-0.557124 0.649829 -0.402997
-0.597316 0.701502 -0.380162
-0.48737 0.611866 -0.431444
-0.452021 0.639907 -0.395747
-0.583677 0.756654 -0.496538
-0.518378 0.798264 -0.44832
-0.564943 0.752355 -0.389999
-0.609955 0.702774 -0.446532
-0.531881 0.613611 -0.453843
-0.423641 0.729859 -0.475486
-0.491963 0.611667 -0.433113
-0.565641 0.751741 -0.389912
-0.511244 0.609392 -0.436924
-0.459167 0.684661 -0.516633
-0.563701 0.71203 -0.528573
-0.425165 0.722426 -0.387782
-0.439985 0.750722 -0.380951
-0.484133 0.783152 -0.478016
-0.504322 0.620484 -0.473955
-0.450142 0.641579 -0.394315
-0.60076 0.7005 -0.382841
-0.459307 0.76822 -0.3938
-0.465344 0.722897 -0.5179
-0.522774 0.795443 -0.435411
-0.524707 0.793667 -0.432904
-0.568451 0.696579 -0.363909
-0.503913 0.61218 -0.435534
-0.571067 0.627939 -0.482486
-0.520112 0.796574 -0.44088
-0.433144 0.732596 -0.497251
-0.419311 0.725085 -0.402716
-0.514213 0.803277 -0.458256
-0.544155 0.634395 -0.412195
-0.468701 0.771904 -0.488694
-0.530188 0.716853 -0.53311
-0.593588 0.675086 -0.508746
-0.561939 0.711404 -0.529083
-0.53491 0.703411 -0.349243
-0.495579 0.716467 -0.519536
-0.516739 0.607815 -0.434102
-0.603733 0.698311 -0.392619
-0.426455 0.731051 -0.482663
-0.574257 0.698367 -0.366484
-0.581413 0.679875 -0.386584
-0.606255 0.698415 -0.404429
-0.533036 0.614563 -0.451761
-0.418832 0.728354 -0.459543
-0.58676 0.688611 -0.378826
-0.581212 0.715414 -0.375781
-0.564379 0.697362 -0.362392
-0.444367 0.733463 -0.50831
-0.418565 0.724547 -0.406849
-0.580448 0.717368 -0.524235
-0.479241 0.713837 -0.3526
-0.477111 0.714299 -0.353101
-0.50476 0.800639 -0.469969
-0.432867 0.670565 -0.383408
-0.599464 0.701387 -0.381529
-0.530991 0.614308 -0.446775
-0.570373 0.664444 -0.396237
-0.548839 0.716867 -0.531681
-0.493332 0.61171 -0.433544
-0.533282 0.617127 -0.436398
-0.457357 0.756102 -0.506923
-0.553404 0.646434 -0.403664
-0.545085 0.635712 -0.411048
-0.561331 0.654375 -0.400822
-0.4281 0.718802 -0.379603
-0.59158 0.664426 -0.506356
-0.470748 0.71658 -0.355269
-0.486722 0.798533 -0.439071
-0.56258 0.75483 -0.391913
-0.463409 0.723086 -0.518134
-0.603029 0.700039 -0.389059
-0.58973 0.738504 -0.5022
-0.443618 0.731304 -0.368972
-0.566444 0.75086 -0.38978
-0.430211 0.727789 -0.378681
-0.442673 0.752584 -0.380351
-0.51449 0.60747 -0.437619
-0.435087 0.732614 -0.501562
-0.430363 0.729584 -0.378852
-0.429818 0.679102 -0.3839
-0.567324 0.749624 -0.389378
-0.610176 0.699938 -0.428749
-0.557256 0.697673 -0.359504
-0.584086 0.683731 -0.383034
-0.570041 0.71492 -0.526765
-0.512252 0.608339 -0.437804
-0.473369 0.776598 -0.48265
-0.506812 0.801074 -0.467565
-0.581435 0.762658 -0.492543
-0.433275 0.665546 -0.378086
-0.586453 0.745929 -0.500585
-0.468209 0.717123 -0.355743
-0.500824 0.711258 -0.348406
-0.585133 0.751476 -0.498543
-0.521407 0.796414 -0.438126
-0.447459 0.712099 -0.516698
-0.457411 0.75798 -0.504232
-0.577189 0.774779 -0.48225
-0.481042 0.78147 -0.478635
-0.577403 0.698536 -0.36765
-0.537911 0.715658 -0.533092
-0.571619 0.741086 -0.385775
-0.53054 0.614315 -0.440848
-0.584751 0.685356 -0.380224
-0.59506 0.70856 -0.503676
-0.494308 0.611267 -0.434679
-0.435666 0.66129 -0.380167
-0.605445 0.698333 -0.400826
-0.468884 0.65564 -0.514445
-0.552526 0.644856 -0.404811
-0.517217 0.802802 -0.458621
-0.57152 0.715782 -0.526467
-0.601962 0.699049 -0.385147
-0.584264 0.647693 -0.497355
-0.561056 0.756595 -0.39306
-0.583708 0.702368 -0.379406
-0.578647 0.716782 -0.524858
-0.443002 0.729327 -0.368341
-0.58426 0.684099 -0.381952
-0.462349 0.778461 -0.40636
-0.57622 0.776635 -0.480066
-0.484624 0.718571 -0.51711
-0.417531 0.72229 -0.414861
-0.584194 0.702786 -0.379554
-0.494779 0.711311 -0.349091
-0.60583 0.69834 -0.402287
-0.569882 0.744143 -0.386845
-0.453272 0.724743 -0.361506
-0.426492 0.711007 -0.380314
-0.528251 0.788776 -0.422781
-0.537216 0.702921 -0.349699
-0.607966 0.70369 -0.46068
-0.51584 0.607522 -0.434841
-0.55978 0.758457 -0.39426
-0.605102 0.698248 -0.399727
-0.459476 0.722392 -0.517256
-0.529309 0.788073 -0.421755
-0.590937 0.693435 -0.378374
-0.58383 0.706362 -0.374466
-0.538881 0.781407 -0.412834
-0.59573 0.700849 -0.379753
-0.484983 0.614015 -0.428361
-0.596258 0.701132 -0.3799
-0.574859 0.670024 -0.393571
-0.566696 0.660264 -0.398123
-0.583596 0.702687 -0.379587
-0.417611 0.722123 -0.440917
-0.417476 0.720322 -0.419432
-0.54096 0.701461 -0.35084
-0.447148 0.728157 -0.365445
-0.605104 0.705981 -0.478777
-0.469354 0.650833 -0.511753
-0.603391 0.699057 -0.390939
-0.459809 0.78068 -0.408463
-0.603917 0.707552 -0.482312
-0.604114 0.69862 -0.395705
-0.576266 0.729671 -0.381282
-0.59231 0.728372 -0.505721
-0.608599 0.700217 -0.419749
-0.610453 0.701935 -0.434377
-0.585598 0.68691 -0.379384
-0.447026 0.713793 -0.516831
-0.543597 0.633679 -0.413075
-0.604022 0.698483 -0.394838
-0.456289 0.722813 -0.514625
-0.524394 0.604846 -0.451178
-0.592596 0.705644 -0.512575
-0.531542 0.61417 -0.44941
-0.523239 0.605648 -0.452828
-0.417819 0.724429 -0.41183
-0.489874 0.611201 -0.433453
-0.531093 0.614527 -0.443987
-0.523883 0.605036 -0.45182
-0.454714 0.721916 -0.5144
-0.424397 0.730284 -0.47767
-0.482076 0.794942 -0.433248
-0.564274 0.752969 -0.390423
-0.48477 0.631146 -0.490246
-0.482896 0.632773 -0.492758
-0.507849 0.713052 -0.525577
-0.498658 0.711647 -0.348683
-0.487015 0.718977 -0.517276
-0.54247 0.632405 -0.414491
-0.493195 0.710917 -0.349227
-0.583403 0.708273 -0.374444
-0.519962 0.796823 -0.439556
-0.544417 0.716483 -0.532144
-0.471256 0.720181 -0.517298
-0.522745 0.715707 -0.53202
-0.5632 0.754348 -0.391761
-0.43322 0.738947 -0.379466
-0.480184 0.780832 -0.479489
-0.60657 0.698755 -0.405999
-0.608505 0.70314 -0.457995
-0.46266 0.680618 -0.517249
-0.534377 0.614493 -0.452595
-0.436543 0.733652 -0.503255
-0.428733 0.684461 -0.38332
-0.507529 0.801302 -0.466492
-0.585909 0.687247 -0.37908
-0.54665 0.717055 -0.531833
-0.512438 0.802928 -0.458451
-0.532404 0.617644 -0.432179
-0.578168 0.772141 -0.484681
-0.553095 0.768562 -0.399527
-0.479795 0.619472 -0.421352
-0.431309 0.734786 -0.379401
-0.568242 0.661985 -0.39761
-0.458453 0.765049 -0.495124
-0.510933 0.802257 -0.462844
-0.447732 0.643467 -0.39297
-0.42287 0.729614 -0.47339
-0.583382 0.703154 -0.379616
-0.571752 0.697246 -0.36526
-0.531339 0.613139 -0.455092
-0.417623 0.720209 -0.42419
-0.584374 0.642597 -0.489516
-0.569037 0.745435 -0.387146
-0.511563 0.802352 -0.462072
-0.596706 0.701516 -0.379897
-0.582232 0.681434 -0.385584
-0.420639 0.725403 -0.398528
-0.573962 0.668899 -0.394185
-0.583608 0.703727 -0.379595
-0.531602 0.614412 -0.448141
-0.602767 0.700203 -0.387931
-0.592948 0.707795 -0.50887
-0.560509 0.653261 -0.401894
-0.417832 0.725725 -0.452444
-0.600161 0.701279 -0.382207
-0.497619 0.716102 -0.520115
-0.602619 0.6999 -0.387308
-0.507267 0.617286 -0.469038
-0.528921 0.612797 -0.447092
-0.551226 0.642502 -0.407812
-0.606748 0.699422 -0.40703
-0.556946 0.619416 -0.470838
-0.530394 0.613808 -0.445125
-0.586302 0.687782 -0.37893
-0.420671 0.729992 -0.466381
-0.506267 0.713801 -0.524317
-0.551768 0.643198 -0.407015
-0.592831 0.671273 -0.507991
-0.49531 0.6105 -0.43603
-0.520457 0.606843 -0.4546
-0.452348 0.738367 -0.515948
-0.54924 0.772176 -0.401765
-0.606001 0.705528 -0.473449
-0.549295 0.699057 -0.355106
-0.551574 0.770009 -0.40028
-0.455431 0.692865 -0.51643
-0.526213 0.791939 -0.429715
-0.523487 0.794814 -0.434266
-0.568131 0.713935 -0.527299
-0.575633 0.731596 -0.381918
-0.584171 0.645654 -0.493053
-0.505183 0.710005 -0.347623
-0.479608 0.633502 -0.496826
-0.464396 0.678875 -0.517773
-0.595928 0.709015 -0.50163
-0.421733 0.729695 -0.47064
-0.609711 0.703241 -0.448298
-0.590239 0.700486 -0.369921
-0.497835 0.622626 -0.477345
-0.458128 0.727241 -0.517656
-0.575721 0.63194 -0.486292
-0.574942 0.716414 -0.525916
-0.486311 0.630009 -0.4888
-0.482929 0.632859 -0.493727
-0.528456 0.612948 -0.443162
-0.472773 0.719804 -0.516909
-0.499528 0.715921 -0.520825
-0.509779 0.610905 -0.435692
-0.45567 0.72256 -0.514329
-0.516375 0.607652 -0.434477
-0.453331 0.6384 -0.397186
-0.508606 0.801643 -0.46522
-0.480723 0.633777 -0.500516
-0.569787 0.784809 -0.474972
-0.608005 0.699251 -0.41588
-0.482565 0.63287 -0.494658
-0.594813 0.721932 -0.506181
-0.528655 0.612846 -0.44662
-0.479807 0.63363 -0.497909
-0.513465 0.607892 -0.437888
-0.483156 0.615655 -0.426535
-0.588489 0.71577 -0.521282
-0.427132 0.731537 -0.484283
-0.572622 0.739329 -0.385375
-0.562142 0.755099 -0.391999
-0.552509 0.769162 -0.399791
-0.600663 0.708586 -0.492283
-0.550079 0.715864 -0.531666
-0.531547 0.613143 -0.455598
-0.573185 0.716327 -0.526187
-0.492356 0.717814 -0.518572
-0.548461 0.773268 -0.403058
-0.548405 0.639398 -0.409398
-0.581887 0.638568 -0.488243
-0.445938 0.728564 -0.366162
-0.608202 0.703449 -0.459363
-0.482409 0.782164 -0.478211
-0.445376 0.645586 -0.391839
-0.490562 0.718529 -0.518085
-0.493214 0.625178 -0.481294
-0.536667 0.716598 -0.533008
-0.45689 0.752364 -0.510844
-0.573252 0.736843 -0.38355
-0.588034 0.690187 -0.378875
-0.468554 0.664171 -0.518139
-0.491839 0.625997 -0.482598
-0.563751 0.753686 -0.391201
-0.576589 0.673126 -0.390713
-0.533339 0.785852 -0.418366
-0.531314 0.613093 -0.455447
-0.463021 0.722839 -0.518181
-0.518794 0.607439 -0.45545
-0.530285 0.61358 -0.448927
-0.458415 0.632979 -0.402366
-0.417643 0.722566 -0.4427
-0.514921 0.609944 -0.458644
-0.5144 0.715342 -0.528614
-0.579615 0.677393 -0.388336
-0.547211 0.69975 -0.354169
-0.425222 0.724566 -0.389822
-0.424937 0.724923 -0.384893
-0.609634 0.69973 -0.425733
-0.554001 0.767082 -0.39862
-0.505996 0.806179 -0.451309
-0.52937 0.61297 -0.447914
-0.557791 0.713426 -0.529953
-0.59254 0.705696 -0.512177
-0.556575 0.763471 -0.396817
-0.418475 0.727588 -0.458058
-0.601339 0.699596 -0.383677
-0.553944 0.698943 -0.357827
-0.595045 0.701214 -0.379134
-0.450672 0.733624 -0.516303
-0.471714 0.641345 -0.506671
-0.603898 0.698228 -0.393875
-0.581366 0.713637 -0.374832
-0.417428 0.721489 -0.43748
-0.417657 0.720072 -0.425957
-0.593122 0.70217 -0.377298
-0.575681 0.698623 -0.367015
-0.587534 0.653915 -0.502541
-0.470448 0.643897 -0.507773
-0.610461 0.702275 -0.437901
-0.478222 0.620128 -0.420192
-0.588274 0.741778 -0.501749
-0.547502 0.774397 -0.404274
-0.530344 0.613839 -0.445866
-0.466687 0.674831 -0.518831
-0.431945 0.667379 -0.382908
-0.426391 0.696246 -0.382564
-0.426222 0.705248 -0.380794
-0.546714 0.775282 -0.405389
-0.551577 0.714981 -0.531524
-0.417776 0.725482 -0.450537
-0.559954 0.711372 -0.52957
-0.417442 0.72052 -0.434665
-0.431345 0.73296 -0.494264
-0.610479 0.702398 -0.43612
-0.521571 0.714867 -0.5317
-0.533003 0.618612 -0.430333
-0.609951 0.699612 -0.427421
-0.607334 0.704475 -0.464178
-0.508887 0.616116 -0.467478
-0.471156 0.640541 -0.505894
-0.515837 0.708995 -0.347377
-0.552003 0.643726 -0.406066
-0.468955 0.786323 -0.417717
-0.513261 0.61394 -0.464037
-0.545319 0.700534 -0.353263
-0.574062 0.780276 -0.476777
-0.466537 0.675745 -0.518585
-0.609353 0.70249 -0.451926
-0.558774 0.620412 -0.472243
-0.418972 0.724817 -0.404639
-0.4763 0.778624 -0.481242
-0.508096 0.611272 -0.435889
-0.527561 0.789545 -0.424293
-0.592519 0.702836 -0.375024
-0.553513 0.617186 -0.468282
-0.60954 0.70292 -0.450186
-0.606658 0.704601 -0.469724
-0.531318 0.613883 -0.450539
-0.572769 0.667491 -0.394739
-0.4774 0.718734 -0.516825
-0.591396 0.694287 -0.378053
-0.586182 0.705177 -0.380047
-0.574438 0.630964 -0.485448
-0.496292 0.788938 -0.470718
-0.472996 0.775703 -0.484122
-0.577476 0.674819 -0.389702
-0.579744 0.635253 -0.487151
-0.582843 0.710247 -0.374367
-0.469882 0.787682 -0.419649
-0.479458 0.7935 -0.429802
-0.58401 0.647278 -0.495304
-0.515782 0.801306 -0.456021
-0.491449 0.71112 -0.349501
-0.531631 0.615777 -0.438404
-0.453948 0.740618 -0.516176
-0.55037 0.771028 -0.400812
-0.461143 0.779728 -0.407806
-0.509811 0.708697 -0.34732
-0.523798 0.605372 -0.452402
-0.570777 0.742682 -0.386351
