ply
format ascii 1.0
element vertex 874
property float x
property float y
property float z
end_header
-0.708887 1.27779 -0.147342
-0.708469 1.28014 -0.150757
-0.707108 1.28284 -0.156247
-0.693458 1.29763 -0.155197
-0.619532 1.29286 -0.1501
-0.707627 1.28169 -0.154558
-0.608229 1.33945 -0.177137
-0.678871 1.35004 -0.177836
-0.622179 1.24908 -0.141331
-0.625401 1.22614 -0.129407
-0.624648 1.23267 -0.132572
-0.626529 1.22032 -0.124938
-0.682959 1.31662 -0.168358
-0.773864 1.16076 -0.0450344
-0.767842 1.16105 -0.0469184
-0.631233 1.20918 -0.114582
-0.64348 1.19603 -0.098984
-0.720908 1.26262 -0.119058
-0.662315 1.18362 -0.0818951
-0.634045 1.20527 -0.108377
-0.648243 1.19259 -0.0926923
-0.646144 1.1939 -0.0959203
-0.802266 1.16154 -0.034812
-0.80018 1.24271 -0.0737181
-0.802884 1.24333 -0.0732664
-0.788399 1.24399 -0.0721133
-0.814618 1.24455 -0.0731786
-0.756839 1.16246 -0.0490556
-0.725225 1.16536 -0.0567163
-0.719334 1.26324 -0.121844
-0.807799 1.16243 -0.032007
-0.670807 1.17942 -0.0756917
-0.687404 1.17065 -0.0725081
-0.751443 1.16291 -0.0506593
-0.746519 1.16322 -0.0521324
-0.791362 1.16193 -0.0378629
-0.77959 1.2434 -0.0748909
-0.780606 1.24439 -0.0729891
-0.773917 1.24575 -0.0737515
-0.659576 1.1853 -0.0837207
-0.620235 1.31176 -0.159817
-0.746718 1.25312 -0.0839485
-0.743666 1.25425 -0.0862803
-0.650553 1.19138 -0.0896187
-0.76473 1.2479 -0.0733741
-0.7967 1.16157 -0.0365078
-0.768146 1.24645 -0.073167
-0.679802 1.33127 -0.172894
-0.757354 1.24992 -0.0766041
-0.770874 1.24532 -0.0737211
-0.733692 1.25716 -0.09895
-0.957016 1.35923 -0.113878
-0.689677 1.30376 -0.157547
-0.62308 1.24542 -0.139611
-0.656813 1.18728 -0.0852615
-0.620719 1.29927 -0.150916
-0.920154 1.21351 -0.021689
-0.683179 1.38197 -0.193798
-0.605876 1.40617 -0.213422
-0.607719 1.41391 -0.218127
-0.608582 1.41726 -0.219804
-0.604618 1.40086 -0.209649
-0.690201 1.54777 -0.285525
-0.696686 1.42216 -0.228145
-0.865486 1.53548 -0.278483
-0.68563 1.39114 -0.200674
-0.693106 1.41374 -0.22118
-0.615671 1.43702 -0.229384
-0.692447 1.41166 -0.219234
-0.688617 1.40055 -0.209794
-0.681378 1.37462 -0.189769
-0.602337 1.37891 -0.197192
-0.62482 1.23547 -0.134015
-0.626157 1.22298 -0.127178
-0.681934 1.37728 -0.191207
-0.686786 1.3087 -0.16096
-0.602537 1.38384 -0.199564
-0.602383 1.38145 -0.198433
-0.934592 1.31876 -0.102564
-0.636367 1.2029 -0.105148
-0.687704 1.39789 -0.207134
-0.620762 1.2993 -0.149768
-0.683693 1.38364 -0.195173
-0.680166 1.36832 -0.185808
-0.624736 1.2298 -0.131108
-0.619686 1.31319 -0.160686
-0.612542 1.32773 -0.169813
-0.683464 1.31459 -0.167404
-0.782498 1.24469 -0.0715672
-0.68426 1.31253 -0.165854
-0.604192 1.36041 -0.187509
-0.636283 1.46774 -0.244545
-0.724857 1.26102 -0.111496
-0.718087 1.26422 -0.124098
-0.61641 1.31941 -0.163963
-0.727952 1.58405 -0.301131
-0.604042 1.39705 -0.207649
-0.956077 1.50023 -0.201016
-0.603589 1.39324 -0.206105
-0.909682 1.20524 -0.0192725
-0.773998 1.2452 -0.0788882
-0.60612 1.34815 -0.181514
-0.739743 1.46731 -0.258823
-0.620809 1.26565 -0.149032
-0.639678 1.47208 -0.246615
-0.637303 1.46892 -0.245102
-0.667107 1.52154 -0.274644
-0.64643 1.48812 -0.259133
-0.602399 1.37581 -0.195703
-0.602608 1.3724 -0.193951
-0.680971 1.37302 -0.188605
-0.913607 1.54445 -0.269657
-0.624669 1.23848 -0.135739
-0.711292 1.26991 -0.134747
-0.639933 1.19932 -0.101936
-0.700004 1.42911 -0.235388
-0.682484 1.53933 -0.281831
-0.796144 1.24234 -0.0737932
-0.704002 1.56262 -0.292673
-1.02719 1.35821 -0.092497
-0.800611 1.50777 -0.274744
-0.694417 1.55243 -0.287151
-0.751861 1.59877 -0.310964
-0.734064 1.58798 -0.304295
-0.796104 1.61822 -0.316327
-0.73945 1.59058 -0.306524
-1.02865 1.36273 -0.0963749
-0.737503 1.58971 -0.305942
-0.947346 1.51899 -0.218009
-0.804534 1.51104 -0.274624
-0.783801 1.49602 -0.27179
-0.748329 1.47307 -0.262241
-0.680539 1.53715 -0.28092
-0.71326 1.57204 -0.295641
-0.957138 1.49368 -0.196015
-0.662967 1.51618 -0.272966
-0.698385 1.4261 -0.231787
-0.626745 1.4569 -0.237305
-0.746925 1.47199 -0.262022
-0.69761 1.42435 -0.229976
-0.614744 1.43488 -0.228318
-0.71714 1.45064 -0.250154
-0.614322 1.32377 -0.167201
-0.617442 1.31757 -0.16299
-0.757488 1.47856 -0.266014
-0.709222 1.56815 -0.294448
-0.959296 1.48052 -0.186788
-0.70174 1.56013 -0.290806
-0.698042 1.55606 -0.288089
-0.716324 1.57479 -0.2978
-1.03858 1.4347 -0.136664
-0.764809 1.48336 -0.267207
-0.810379 1.5147 -0.275569
-0.788412 1.61687 -0.316629
-0.783089 1.6154 -0.318523
-0.778971 1.61455 -0.317918
-1.03446 1.4794 -0.16526
-0.790847 1.61747 -0.315719
-0.669079 1.52405 -0.275929
-0.820929 1.52158 -0.275437
-0.67881 1.33981 -0.175513
-0.888079 1.61438 -0.286301
-0.861349 1.5348 -0.278739
-0.839025 1.5287 -0.277193
-1.02427 1.34726 -0.0856672
-0.696035 1.29315 -0.156473
-0.653509 1.18958 -0.0870581
-0.841344 1.62135 -0.307562
-0.867544 1.53588 -0.278135
-0.86336 1.53512 -0.278639
-0.854679 1.53332 -0.278851
-0.729048 1.25904 -0.105662
-0.603212 1.39002 -0.204588
-0.857022 1.53382 -0.278931
-0.825763 1.52385 -0.275753
-0.754154 1.60053 -0.311126
-0.884451 1.53663 -0.277986
-0.785707 1.61606 -0.317783
-0.878919 1.53625 -0.277516
-0.821148 1.24639 -0.0721113
-0.851309 1.61997 -0.302606
-0.695864 1.29368 -0.155478
-0.710167 1.27118 -0.136684
-0.955304 1.24708 -0.0323634
-0.724655 1.58192 -0.299986
-0.711573 1.44325 -0.24691
-0.652483 1.5009 -0.266574
-0.794646 1.50347 -0.274126
-0.81339 1.62046 -0.313211
-0.796534 1.50467 -0.274601
-0.940865 1.60876 -0.264724
-0.744318 1.59361 -0.306977
-0.80844 1.51354 -0.275198
-0.698795 1.2909 -0.157128
-0.732007 1.58664 -0.303189
-0.849755 1.53198 -0.278793
-0.847561 1.53126 -0.278665
-0.620825 1.27073 -0.150626
-0.91672 1.61497 -0.269808
-1.03463 1.4545 -0.147878
-0.923366 1.6138 -0.268487
-0.913026 1.54595 -0.267092
-0.919438 1.54448 -0.263347
-0.826117 1.62268 -0.310895
-0.890246 1.61379 -0.284908
-0.753979 1.47643 -0.264942
-0.823035 1.62231 -0.311808
-0.762576 1.60643 -0.312113
-0.834264 1.52657 -0.27789
-0.621779 1.44807 -0.236539
-0.836477 1.52761 -0.277525
-0.651265 1.49892 -0.265937
-0.893077 1.53808 -0.278031
-0.833693 1.62231 -0.308962
-0.767938 1.4854 -0.267614
-0.703473 1.4345 -0.23987
-0.945765 1.33731 -0.10804
-0.90485 1.53951 -0.275847
-0.964913 1.44747 -0.169029
-0.894205 1.6153 -0.278053
-0.792827 1.50228 -0.273666
-0.620502 1.30221 -0.158441
-0.735485 1.46485 -0.256352
-0.947977 1.60607 -0.261712
-0.715873 1.44908 -0.250265
-0.936461 1.32249 -0.103184
-0.93991 1.53038 -0.22504
-0.808096 1.24453 -0.0722346
-0.694262 1.41659 -0.223613
-0.912695 1.54651 -0.265533
-0.927031 1.61301 -0.267894
-0.959243 1.4783 -0.185309
-0.602753 1.38577 -0.201172
-0.91793 1.54471 -0.263319
-0.905625 1.61522 -0.269907
-0.925605 1.54554 -0.257862
-0.888223 1.18345 -0.0183372
-0.60578 1.3498 -0.182947
-0.902879 1.6148 -0.269485
-0.93232 1.22304 -0.0250357
-1.03555 1.45137 -0.146583
-0.933031 1.53925 -0.235197
-0.990764 1.58238 -0.244872
-0.948652 1.23955 -0.0298053
-0.741965 1.46868 -0.259987
-0.937935 1.53328 -0.227561
-0.844947 1.5305 -0.278162
-0.811586 1.16371 -0.02973
-0.89864 1.53876 -0.277712
-0.896649 1.5379 -0.278995
-0.793249 1.61777 -0.315867
-0.972914 1.59394 -0.252048
-0.897857 1.53821 -0.278604
-0.998164 1.5778 -0.243412
-0.913283 1.54519 -0.268543
-0.873307 1.61529 -0.295012
-0.895168 1.53793 -0.278733
-0.933649 1.61124 -0.267029
-0.948588 1.51672 -0.216824
-0.945674 1.52267 -0.2202
-1.01276 1.56485 -0.236904
-0.94481 1.52434 -0.221221
-0.930822 1.31179 -0.101751
-1.01057 1.56709 -0.238073
-0.729703 1.16497 -0.0554769
-1.03315 1.52088 -0.203523
-0.726198 1.58293 -0.300365
-0.71413 1.44672 -0.249471
-0.952797 1.50809 -0.211409
-0.911954 1.54261 -0.272944
-0.913436 1.54383 -0.270462
-0.678952 1.34704 -0.176641
-0.866303 1.26476 -0.0717848
-0.927515 1.54539 -0.253305
-1.02612 1.54547 -0.224616
-0.958866 1.36128 -0.115226
-1.02461 1.54802 -0.22666
-1.02259 1.55072 -0.228352
-0.956761 1.49617 -0.197524
-0.749362 1.59705 -0.309825
-0.673584 1.52915 -0.278169
-0.73197 1.46308 -0.25411
-0.671244 1.52654 -0.27723
-0.868856 1.61588 -0.295415
-1.01665 1.33361 -0.0736226
-0.780036 1.49382 -0.270248
-0.617634 1.44152 -0.231873
-0.959576 1.47543 -0.183973
-0.618689 1.44344 -0.232984
-0.983119 1.58797 -0.247767
-0.716514 1.44986 -0.250215
-0.928752 1.54453 -0.252005
-0.956812 1.37562 -0.11754
-0.892668 1.61685 -0.275811
-1.01884 1.55569 -0.230886
-0.964824 1.45011 -0.170192
-0.620753 1.2997 -0.150333
-1.03281 1.52879 -0.210891
-0.932427 1.54024 -0.236783
-0.934015 1.5381 -0.233616
-0.882386 1.53638 -0.2779
-0.743941 1.46991 -0.26095
-0.958488 1.48558 -0.190557
-1.03431 1.50439 -0.185841
-0.686874 1.39522 -0.204624
-0.957617 1.49106 -0.194245
-0.96062 1.36424 -0.116495
-0.843885 1.62098 -0.306073
-1.01806 1.33588 -0.0754904
-1.02566 1.35303 -0.088988
-0.964965 1.44434 -0.168288
-0.776512 1.6135 -0.316889
-0.965791 1.25844 -0.0369751
-0.9573 1.25023 -0.032795
-0.875312 1.26942 -0.0738179
-0.900627 1.28215 -0.0859817
-0.89838 1.28011 -0.0850535
-0.869054 1.26591 -0.0725329
-1.03927 1.42632 -0.131146
-0.620063 1.30138 -0.158482
-0.885444 1.61514 -0.287428
-0.896195 1.18972 -0.0191588
-0.621149 1.30771 -0.158721
-1.02022 1.34031 -0.0785659
-0.678755 1.34272 -0.17602
-0.604409 1.35639 -0.186591
-0.955031 1.50233 -0.203321
-0.679353 1.36004 -0.182775
-0.678911 1.35619 -0.181025
-0.903258 1.19894 -0.0183838
-0.878621 1.27117 -0.0747785
-0.778327 1.49256 -0.269926
-0.703776 1.43496 -0.240014
-0.926339 1.2202 -0.0222823
-0.638387 1.47039 -0.245593
-0.922466 1.21612 -0.0217787
-0.884301 1.18719 -0.0138086
-0.924381 1.2185 -0.0217963
-0.722561 1.26211 -0.116043
-0.699729 1.29004 -0.157316
-0.715127 1.44804 -0.250011
-0.954566 1.39945 -0.128548
-0.620654 1.29922 -0.152586
-0.914342 1.29149 -0.0945366
-0.6196 1.29132 -0.150101
-0.967977 1.26066 -0.0380444
-0.979939 1.27432 -0.0441421
-0.986409 1.28495 -0.0479561
-0.953404 1.35095 -0.111993
-1.02784 1.53905 -0.219672
-0.708724 1.27487 -0.140942
-1.02505 1.35015 -0.0874414
-0.996447 1.30097 -0.0550696
-0.647629 1.49202 -0.26252
-1.01514 1.33124 -0.0716817
-0.714729 1.5734 -0.29656
-0.696224 1.55423 -0.287678
-0.952309 1.34837 -0.1114
-0.935058 1.53695 -0.232028
-1.00718 1.31986 -0.0636671
-0.906913 1.61539 -0.270038
-0.983962 1.28188 -0.045922
-0.605452 1.35074 -0.18412
-0.784308 1.24453 -0.0716113
-0.980631 1.27595 -0.0444399
-0.894519 1.1884 -0.0189695
-0.680527 1.32637 -0.171211
-0.640963 1.4723 -0.247613
-0.912386 1.20738 -0.0198177
-0.646404 1.48609 -0.257769
-0.85667 1.16994 -0.0199915
-1.03411 1.47704 -0.163019
-0.860344 1.17075 -0.0194672
-0.613423 1.32581 -0.168561
-0.695714 1.29429 -0.15459
-0.925798 1.54616 -0.256014
-1.03086 1.53367 -0.216015
-0.863355 1.17167 -0.0186836
-0.910809 1.54233 -0.273388
-0.867817 1.17425 -0.0164007
-0.855597 1.25869 -0.0710374
-0.814944 1.51745 -0.276209
-0.94261 1.23584 -0.0269375
-1.01644 1.56017 -0.233988
-0.620741 1.30273 -0.158413
-0.894273 1.61471 -0.279694
-0.634161 1.46703 -0.24278
-0.712874 1.26876 -0.131949
-0.615344 1.32161 -0.165526
-0.941455 1.52859 -0.223714
-1.03484 1.45907 -0.1508
-1.03359 1.47482 -0.160836
-0.914703 1.20887 -0.0206435
-0.84556 1.25423 -0.0709284
-0.711031 1.16463 -0.06314
-0.904178 1.28474 -0.0884935
-1.02896 1.36431 -0.0975418
-0.870902 1.17673 -0.0129697
-1.02918 1.37873 -0.100974
-0.725857 1.45794 -0.253578
-0.691047 1.40728 -0.215837
-0.870788 1.17613 -0.0138735
-0.794135 1.24236 -0.073715
-1.02776 1.36004 -0.0937863
-0.922019 1.30082 -0.0976445
-0.976696 1.59187 -0.250807
-1.02893 1.3706 -0.0992709
-0.823676 1.16434 -0.0269909
-0.838854 1.6218 -0.308493
-0.938023 1.32565 -0.103817
-0.845623 1.1676 -0.0214462
-0.72783 1.45951 -0.254095
-1.02637 1.35584 -0.0907167
-0.842092 1.16733 -0.0217507
-0.998043 1.30424 -0.0561583
-0.815715 1.16422 -0.0285286
-1.03581 1.40419 -0.117112
-0.988266 1.28887 -0.0485812
-0.892649 1.18751 -0.0185107
-0.828683 1.24812 -0.0718884
-0.828834 1.52476 -0.276667
-1.03354 1.48787 -0.170868
-0.902503 1.28378 -0.0870279
-0.901129 1.19639 -0.0184574
-0.832157 1.2494 -0.0714951
-0.678528 1.53486 -0.280067
-0.87219 1.26754 -0.073136
-0.918347 1.21165 -0.0215045
-0.934774 1.225 -0.0258736
-0.929215 1.22181 -0.0234725
-0.964651 1.45229 -0.171987
-0.899229 1.19371 -0.0187689
-0.621142 1.3044 -0.158542
-0.960119 1.47219 -0.182891
-0.883656 1.61541 -0.288542
-0.826972 1.16468 -0.0258118
-0.962855 1.25601 -0.0353062
-0.824379 1.24732 -0.0716924
-0.83026 1.16537 -0.0246091
-0.761232 1.48084 -0.266869
-0.676117 1.53209 -0.279132
-0.74243 1.16335 -0.0533789
-0.843205 1.25364 -0.0705573
-0.620649 1.27361 -0.150705
-0.73367 1.46402 -0.255004
-1.02339 1.3454 -0.0839599
-1.0056 1.31716 -0.0621432
-0.786 1.1622 -0.0395224
-0.954639 1.39697 -0.124849
-0.734114 1.16434 -0.054849
-0.91402 1.61523 -0.269862
-0.78647 1.2443 -0.0718169
-0.888563 1.27524 -0.0801884
-0.959827 1.41081 -0.138089
-0.713149 1.44546 -0.248515
-0.955688 1.40403 -0.132267
-0.893003 1.6161 -0.277073
-0.969049 1.59591 -0.253047
-0.603896 1.36215 -0.187971
-0.881342 1.27241 -0.0759763
-0.951211 1.24159 -0.0310859
-0.870713 1.17558 -0.0148034
-0.873608 1.5366 -0.277149
-1.03391 1.50908 -0.189951
-0.956851 1.37955 -0.119348
-1.0212 1.34242 -0.080224
-0.932153 1.54084 -0.23846
-0.940137 1.23311 -0.0263571
-0.750061 1.47418 -0.262969
-0.798537 1.5061 -0.274803
-0.931261 1.54145 -0.24526
-1.03944 1.42892 -0.133417
-0.93826 1.23018 -0.0261594
-0.916349 1.29364 -0.09546
-1.03441 1.48455 -0.169136
-0.885299 1.18381 -0.0168497
-1.0125 1.32693 -0.0689614
-0.695485 1.41945 -0.225944
-1.03622 1.40655 -0.117948
-0.951178 1.34623 -0.110758
-0.84826 1.25504 -0.071253
-1.00427 1.31486 -0.0610768
-0.953368 1.24409 -0.0318605
-0.701923 1.43259 -0.238486
-0.836336 1.6222 -0.308804
-0.899359 1.61405 -0.270196
-0.700907 1.43086 -0.237003
-0.608859 1.33738 -0.17596
-0.620741 1.29831 -0.151632
-0.609294 1.33547 -0.175096
-0.910976 1.54714 -0.261414
-1.01381 1.32905 -0.0700878
-0.942978 1.33277 -0.106548
-1.02891 1.36625 -0.0981383
-1.0331 1.52672 -0.208506
-0.646425 1.48697 -0.258486
-0.610281 1.42376 -0.223328
-0.609438 1.42062 -0.2217
-0.773833 1.6122 -0.315744
-0.850647 1.16823 -0.0211414
-0.698874 1.29146 -0.154499
-0.703304 1.43431 -0.239956
-0.647219 1.49072 -0.261624
-1.02831 1.39076 -0.114144
-0.752124 1.25104 -0.0803935
-0.961263 1.36562 -0.116979
-0.777894 1.24205 -0.0772659
-0.962867 1.46082 -0.176665
-0.73054 1.46193 -0.254006
-0.709004 1.27386 -0.13916
-0.664936 1.18213 -0.079857
-1.03393 1.50695 -0.187923
-0.889075 1.61395 -0.285755
-1.03508 1.46373 -0.154349
-1.02227 1.34409 -0.0820614
-0.766478 1.24719 -0.0730791
-0.641712 1.47203 -0.248789
-0.959728 1.25306 -0.0337842
-0.624809 1.45334 -0.23701
-0.899973 1.53933 -0.276098
-0.91233 1.54696 -0.263837
-1.03383 1.51629 -0.199098
-0.930985 1.54181 -0.247134
-0.853333 1.16904 -0.0205566
-0.706519 1.56543 -0.293692
-0.729296 1.46081 -0.254118
-0.863478 1.26362 -0.0710436
-0.76284 1.2485 -0.0738938
-0.61962 1.28782 -0.151109
-0.626764 1.21816 -0.122676
-1.03323 1.49059 -0.172676
-0.90357 1.5392 -0.276051
-0.876439 1.61561 -0.293545
-0.901209 1.53913 -0.276086
-0.954526 1.5037 -0.205641
-0.956954 1.37711 -0.118204
-0.958731 1.40921 -0.136086
-0.653772 1.50304 -0.267312
-0.806559 1.51239 -0.274858
-0.704959 1.16671 -0.0641849
-0.694544 1.29614 -0.154444
-0.956825 1.37885 -0.119027
-0.980229 1.58982 -0.249215
-0.621686 1.25955 -0.146494
-0.965898 1.42801 -0.161307
-1.02848 1.37895 -0.0992292
-1.03463 1.40059 -0.115843
-0.719032 1.45267 -0.250677
-0.962408 1.46341 -0.177854
-0.911755 1.28912 -0.0933136
-1.02777 1.39074 -0.112848
-0.963763 1.45752 -0.175362
-0.833679 1.1662 -0.0232235
-0.958268 1.37411 -0.115698
-0.700413 1.28975 -0.156578
-0.966489 1.43018 -0.162511
-0.980949 1.2771 -0.0441922
-0.781957 1.49497 -0.270998
-0.948842 1.34253 -0.109494
-0.886612 1.18344 -0.0176574
-0.891188 1.18632 -0.0183718
-0.682594 1.38005 -0.192521
-0.679357 1.17483 -0.0736117
-0.974083 1.26803 -0.0403986
-0.9576 1.40781 -0.134636
-0.944391 1.33492 -0.107355
-0.711231 1.44288 -0.246977
-0.620814 1.44661 -0.235526
-0.92646 1.54614 -0.254528
-0.94329 1.52641 -0.222495
-0.613722 1.43289 -0.227618
-0.883494 1.27327 -0.0772144
-1.03304 1.52477 -0.206151
-0.741872 1.59199 -0.306813
-0.705373 1.43658 -0.241545
-1.03385 1.49246 -0.174439
-0.678991 1.33707 -0.174654
-0.688644 1.30549 -0.158719
-0.776837 1.49121 -0.269834
-0.745622 1.471 -0.261694
-0.700684 1.28942 -0.156731
-0.621865 1.25685 -0.144945
-1.02923 1.37165 -0.100124
-0.620977 1.30345 -0.158418
-0.685401 1.31061 -0.163381
-0.756606 1.60233 -0.311228
-0.736907 1.25614 -0.0937665
-0.900417 1.61396 -0.269065
-0.641239 1.472 -0.247998
-1.03297 1.52291 -0.204646
-0.715961 1.26662 -0.127131
-0.69181 1.29948 -0.157199
-0.884302 1.18913 -0.0118216
-0.738439 1.16372 -0.054286
-0.91808 1.29587 -0.0961734
-0.690669 1.30146 -0.157766
-0.831815 1.52571 -0.277525
-0.620552 1.28193 -0.151986
-0.909395 1.54662 -0.260181
-0.802486 1.50944 -0.274558
-1.02893 1.36864 -0.0987578
-0.684856 1.38839 -0.198853
-0.954622 1.39832 -0.12639
-0.620273 1.30169 -0.15849
-0.792389 1.24266 -0.0734361
-0.891348 1.53798 -0.277772
-0.722886 1.5805 -0.299684
-0.621029 1.26293 -0.147803
-1.02869 1.37839 -0.0987412
-0.963587 1.4214 -0.151644
-0.859686 1.61909 -0.300603
-0.802567 1.61964 -0.315295
-0.897573 1.1914 -0.0190123
-0.870518 1.61529 -0.295538
-0.760352 1.24918 -0.0748909
-0.684211 1.38573 -0.19696
-0.755923 1.4776 -0.265616
-0.947275 1.3401 -0.10875
-0.620811 1.27939 -0.151776
-0.961515 1.36758 -0.118137
-0.642506 1.47281 -0.249652
-0.717074 1.2654 -0.125704
-0.95191 1.60449 -0.260686
-0.839946 1.25254 -0.0704788
-0.723739 1.2617 -0.113618
-0.632991 1.20677 -0.111473
-1.00294 1.31323 -0.0599457
-0.648394 1.49369 -0.263738
-0.841993 1.52971 -0.277421
-0.620731 1.27577 -0.150866
-0.667451 1.18096 -0.0774734
-0.965759 1.59766 -0.254338
-0.907489 1.54139 -0.273923
-0.623145 1.45033 -0.23692
-0.930304 1.61218 -0.267529
-0.760771 1.60526 -0.311109
-0.72371 1.45633 -0.252691
-1.03461 1.4966 -0.178573
-0.884399 1.18514 -0.0156027
-0.888075 1.53731 -0.277936
-0.632042 1.46602 -0.240446
-0.993012 1.29627 -0.0518342
-1.03738 1.44038 -0.139658
-0.953608 1.50627 -0.209651
-0.966117 1.43392 -0.164467
-0.955479 1.40123 -0.131358
-0.759215 1.47961 -0.266396
-0.817176 1.51896 -0.276109
-0.665094 1.51893 -0.273825
-0.678822 1.35373 -0.1796
-0.674924 1.17725 -0.0745041
-0.866195 1.17345 -0.0170869
-0.769832 1.48641 -0.268268
-0.712119 1.44402 -0.247304
-0.660739 1.51333 -0.271824
-1.0293 1.53641 -0.217999
-0.735344 1.25666 -0.0961835
-0.683669 1.17241 -0.0730951
-0.848088 1.16779 -0.0214099
-0.731655 1.2579 -0.102233
-0.621642 1.2548 -0.143846
-0.809963 1.24456 -0.0724549
-0.789239 1.49967 -0.273194
-0.859272 1.53437 -0.278865
-0.785633 1.49712 -0.272403
-0.959807 1.36266 -0.116
-0.994312 1.5801 -0.244268
-0.937064 1.53451 -0.229015
-0.899277 1.53928 -0.276694
-0.919897 1.29814 -0.0968974
-0.690139 1.40474 -0.214038
-1.03472 1.46644 -0.156297
-0.678917 1.34481 -0.176076
-0.773661 1.24554 -0.0780271
-1.03341 1.47253 -0.159306
-0.935985 1.53581 -0.230475
-0.84861 1.62023 -0.302992
-0.692443 1.55029 -0.286376
-0.98578 1.58616 -0.246381
-0.954917 1.40003 -0.130243
-0.680083 1.32904 -0.17211
-0.689369 1.40261 -0.212098
-0.864724 1.17257 -0.0178678
-0.708497 1.27681 -0.145506
-0.620891 1.27746 -0.15133
-0.686263 1.3932 -0.202432
-0.649304 1.49547 -0.264561
-0.956674 1.49807 -0.199082
-0.82313 1.52277 -0.275356
-0.611086 1.42665 -0.224693
-0.890422 1.18487 -0.0187431
-0.697855 1.29195 -0.154803
-0.990988 1.29362 -0.0499704
-0.959094 1.48282 -0.188644
-0.987966 1.58442 -0.245396
-0.805799 1.24414 -0.0724944
-0.875532 1.53643 -0.277173
-0.70841 1.27591 -0.143257
-0.787463 1.49833 -0.272863
-1.03743 1.41192 -0.122125
-0.906122 1.28545 -0.0902237
-0.889765 1.53769 -0.277809
-0.737433 1.46596 -0.257505
-0.684772 1.54176 -0.283018
-0.963911 1.42404 -0.15523
-0.682125 1.31934 -0.16909
-0.8119 1.24431 -0.0730346
-1.01107 1.32493 -0.0677419
-0.908932 1.61544 -0.269809
-0.904347 1.61505 -0.269543
-0.899653 1.61393 -0.269909
-0.619085 1.31462 -0.161453
-0.954532 1.35398 -0.112425
-0.960779 1.4125 -0.140451
-1.02844 1.37931 -0.100045
-1.03457 1.49921 -0.180977
-0.620057 1.28497 -0.151658
-0.650251 1.49717 -0.265198
-0.931818 1.54115 -0.240577
-0.810948 1.62056 -0.313385
-0.916632 1.2101 -0.0212108
-0.726579 1.26018 -0.108828
-0.798025 1.2424 -0.0738722
-0.955416 1.39006 -0.123062
-0.602954 1.38756 -0.203013
-0.692714 1.29837 -0.156196
-0.619555 1.28981 -0.150492
-0.620669 1.31046 -0.159206
-0.908487 1.28678 -0.0916775
-1.03459 1.48185 -0.16733
-0.681208 1.32287 -0.170092
-1.02799 1.3795 -0.099236
-1.03897 1.42372 -0.128634
-0.79103 1.50102 -0.273419
-0.699325 1.29024 -0.157427
-0.60975 1.33407 -0.174062
-0.702696 1.43368 -0.239395
-0.695363 1.29489 -0.154217
-0.703127 1.43418 -0.239915
-0.909108 1.542 -0.273506
-1.0377 1.43785 -0.138182
-1.02968 1.37711 -0.101486
-0.751934 1.4753 -0.263921
-0.698905 1.16875 -0.0658189
-0.955561 1.38781 -0.122797
-0.895677 1.27818 -0.083926
-0.620893 1.26806 -0.150045
-0.619769 1.44506 -0.234189
-0.70418 1.43548 -0.24045
-0.74071 1.25517 -0.0887629
-1.00917 1.32263 -0.0657535
-1.03405 1.51384 -0.195862
-0.911459 1.61538 -0.269763
-0.977001 1.27103 -0.0422512
-0.709413 1.27265 -0.137944
-0.924416 1.3038 -0.0986052
-0.690065 1.30301 -0.157564
-0.931431 1.54136 -0.242914
-0.932542 1.31473 -0.102169
-0.956853 1.3807 -0.11981
-0.714548 1.26769 -0.129221
-0.937306 1.61002 -0.266101
-0.698789 1.29147 -0.153892
-0.950064 1.34439 -0.110117
-0.851837 1.25665 -0.0712751
-0.64646 1.48539 -0.256885
-0.885791 1.27418 -0.07857
-0.720816 1.57875 -0.299384
-0.846376 1.62067 -0.304415
-0.769687 1.24572 -0.0734574
-0.861146 1.26232 -0.0707324
-0.987734 1.28733 -0.0487412
-0.691077 1.16968 -0.0709209
-0.620893 1.30929 -0.158948
-1.03531 1.40226 -0.116474
-0.962731 1.41577 -0.144938
-0.718594 1.16423 -0.0603875
-0.959395 1.60111 -0.257726
-0.607037 1.4111 -0.216584
-0.630569 1.46376 -0.239275
-1.02791 1.37927 -0.0988193
-0.892275 1.27647 -0.0822515
-0.900316 1.6138 -0.269261
-0.646877 1.48947 -0.26042
-0.961838 1.41385 -0.142666
-0.955552 1.35652 -0.112864
-0.79922 1.6188 -0.316138
-1.03214 1.53103 -0.213472
-0.698711 1.29133 -0.155995
-0.679371 1.33426 -0.173755
-0.930616 1.5428 -0.249765
-0.961461 1.36685 -0.117576
-0.603544 1.36419 -0.188946
-0.955721 1.60282 -0.259329
-0.699978 1.29023 -0.15677
-1.03668 1.40926 -0.119837
-0.956713 1.38289 -0.120681
-0.611367 1.3301 -0.171378
-0.861953 1.61868 -0.298984
-0.629019 1.21244 -0.117589
-0.718408 1.57666 -0.298795
-0.621211 1.30593 -0.158648
-1.02975 1.3755 -0.101374
-0.86942 1.1749 -0.0157485
-0.962811 1.59935 -0.256017
-0.620556 1.29859 -0.149611
-0.929918 1.54365 -0.250864
-0.610406 1.33233 -0.17273
-0.964436 1.4545 -0.173798
-0.961351 1.36618 -0.117065
-0.605226 1.40365 -0.211655
-0.77769 1.16143 -0.0431517
-0.891594 1.61387 -0.283506
-0.981948 1.27911 -0.0443789
-0.606467 1.40868 -0.214956
-0.954932 1.39259 -0.123498
-0.721352 1.16529 -0.0583056
-0.772811 1.24555 -0.0738749
-0.708001 1.28091 -0.15264
-0.957295 1.37677 -0.119738
-0.691848 1.40967 -0.217541
-0.969688 1.26291 -0.0383996
-0.679089 1.35782 -0.182057
-0.628762 1.46058 -0.238045
-0.812638 1.51602 -0.275987
-0.624099 1.24171 -0.137684
-0.687503 1.54478 -0.284367
-0.729967 1.58528 -0.30215
-1.02817 1.36129 -0.0949761
-0.754402 1.25048 -0.0786811
-0.738511 1.25573 -0.0913265
-0.893687 1.61575 -0.277118
-0.781374 1.16202 -0.0413498
-0.956967 1.37961 -0.119575
-0.699171 1.42761 -0.233578
-0.94557 1.23796 -0.0282009
-0.930772 1.54227 -0.248661
-0.963216 1.41847 -0.148075
-1.02014 1.55348 -0.229677
-0.819134 1.52034 -0.275875
-0.746701 1.59522 -0.308054
-0.927104 1.30709 -0.0998942
-0.871669 1.53665 -0.277266
-0.694296 1.16952 -0.0683771
-0.758791 1.6039 -0.311026
-1.03449 1.50182 -0.183577
-0.635165 1.46718 -0.243772
-0.680571 1.37123 -0.187288
-1.03825 1.41649 -0.124833
-0.893161 1.61423 -0.281725
-0.816566 1.62096 -0.313351
-0.696833 1.29234 -0.156068
-0.994878 1.29863 -0.0536926
-0.679815 1.36543 -0.184436
-0.944288 1.60745 -0.263036
-0.919944 1.61441 -0.269185
-0.999684 1.30787 -0.0571825
-0.82658 1.24775 -0.0717739
-1.03447 1.45698 -0.149243
-0.956472 1.385 -0.122217
-0.954205 1.50486 -0.207704
-0.771652 1.24534 -0.0739706
-0.936569 1.22742 -0.0260752
-1.01923 1.33798 -0.0770708
-0.618311 1.31616 -0.162246
-0.989388 1.29096 -0.0489804
-0.699796 1.55793 -0.28902
-1.03409 1.46947 -0.157953
-0.929353 1.30958 -0.101204
-0.60432 1.35865 -0.187095
-0.790255 1.24333 -0.0728402
-0.700347 1.28977 -0.157317
-0.837746 1.16692 -0.0222193
-0.869558 1.53628 -0.277645
