ply
format ascii 1.0
element vertex 1674
property float x
property float y
property float z
end_header
0.95182 0.171417 -0.497029
0.864826 0.146948 -0.470806
0.996447 0.104203 -0.623973
1.08692 -0.0699856 -0.535443
1.07197 -0.0751556 -0.542902
1.10925 -0.0178993 -0.364193
0.944184 0.080305 -0.587343
0.957714 -0.273102 -0.289017
0.941575 0.082429 -0.581753
0.924002 0.00201106 -0.317033
0.96865 0.164548 -0.495309
1.12165 -0.155292 -0.0539588
0.995458 0.0763545 -0.347969
0.912325 0.0971188 -0.503655
1.0129 -0.274618 -0.268598
0.907899 0.0877679 -0.503601
0.904569 0.141835 0.0969638
0.940169 0.0840765 -0.572796
0.949868 0.0113746 -0.0039075
0.939401 0.0851982 -0.567021
0.916374 0.0824812 -0.527589
0.894939 0.245439 -0.30382
0.918138 0.082733 -0.529587
0.917806 0.095748 -0.503201
0.926536 0.0818433 -0.537824
0.906219 0.0811102 -0.522283
0.905421 0.0812739 -0.521972
0.960571 0.199151 -0.305304
0.942081 0.0839544 -0.577461
0.96114 0.148029 -0.498558
0.953652 0.167635 -0.497783
0.999032 0.0782305 -0.353894
0.982652 0.151451 -0.271785
0.983094 -0.07905 -0.535569
0.858231 0.0177947 -0.383649
0.866245 0.0112991 -0.396973
0.858232 0.0182248 -0.380187
0.92032 0.151263 -0.253323
0.941498 0.083242 -0.580027
0.859924 0.0198762 -0.354514
0.80825 -0.145587 -0.388643
1.04488 -0.0176134 0.0668473
0.840414 0.0234023 -0.404548
0.804747 0.0845399 -0.405241
0.888944 0.0779821 -0.496967
0.831427 0.0308654 -0.407154
0.949877 0.0792977 -0.596172
0.811605 0.0844777 -0.414673
0.786452 0.105072 -0.405024
0.965014 -0.239688 -0.0855464
0.799403 0.0847765 -0.396297
0.823978 0.235784 -0.356921
0.987205 0.0803847 -0.311757
0.93826 0.0854489 -0.562323
0.912206 0.243728 -0.451415
0.870492 0.261084 -0.393259
0.821142 0.227273 -0.343769
0.982245 0.0784681 -0.307766
0.84708 0.22565 -0.416101
0.965755 -0.239183 -0.0859249
0.964058 0.23294 -0.38513
0.851029 0.249754 -0.322445
1.04296 0.118074 -0.610559
1.02841 0.15185 -0.445876
0.846081 0.229714 -0.411529
0.842897 0.238509 -0.344811
0.816199 0.231291 -0.361215
0.96571 0.14072 -0.502125
1.2001 -0.0384065 -0.302422
0.961184 0.0700929 -0.294741
0.859227 0.17805 -0.454644
0.823969 0.229529 -0.345718
0.779397 0.179386 -0.388136
0.794553 0.208455 -0.3752
0.818175 0.140054 0.124491
0.836884 0.233567 -0.322133
0.789271 0.108777 -0.295958
0.783905 0.127298 -0.297424
0.992768 -0.13318 0.0716083
0.939301 0.0848826 -0.568276
0.809936 0.212383 -0.334682
1.11735 -0.0719955 -0.459877
0.98808 0.165534 -0.310396
0.797715 -0.0312867 -0.0339391
0.84658 0.154302 0.0471174
0.822532 0.0610727 -0.434166
0.973599 0.179887 -0.308062
0.843854 0.155679 0.0507466
0.868818 0.24855 -0.312887
0.932464 0.223085 -0.474834
0.898212 0.182242 -0.254663
1.18216 -0.038135 -0.326362
0.805965 0.221275 -0.369086
1.13733 -0.131189 -0.0508764
0.789697 0.17466 -0.314441
1.14347 -0.0641322 -0.381186
0.980059 0.150464 -0.267228
0.976286 0.127945 -0.522606
0.985394 -0.00822931 -0.193261
1.14294 -0.0514691 -0.380429
0.923539 0.0137923 -0.299538
0.784316 0.0351311 -0.011445
0.821652 0.175579 0.101808
0.874466 -0.242399 -0.298155
0.933163 0.129534 -0.25831
0.755911 -0.110111 -0.307209
0.786533 0.143663 0.0695267
1.02424 0.149647 -0.451532
0.812813 0.148635 0.0589985
0.870056 -0.00615749 -0.0180504
0.874207 0.0860496 -0.241106
0.896777 0.149909 0.0974018
0.892406 0.25875 -0.424857
0.817551 0.174748 0.102567
0.785454 0.136572 0.0605654
0.90839 0.0802579 -0.522495
0.808257 -0.0577186 -0.157412
0.785605 0.139702 0.0630951
0.85507 0.171912 0.0983813
0.99622 0.153519 -0.307014
1.01129 -0.00979903 -0.476662
0.834902 0.0641484 0.0195985
1.15496 -0.0258933 -0.0595458
0.901419 0.177834 -0.25404
0.842949 0.156099 -0.248637
0.78378 0.154734 0.0863783
1.22552 -0.0318545 -0.269176
0.749437 0.0302728 0.0607293
0.984843 8.26716e-05 -0.0616174
0.782109 0.104062 0.0298332
0.835861 -0.0441298 -0.250716
0.757825 -0.00173289 0.0573098
0.819163 0.0426285 -0.410831
0.784731 0.0309986 -0.0131737
0.85391 0.0897213 -0.251306
0.870268 0.163301 0.0967728
0.837551 0.054814 0.0175294
0.841997 0.249358 -0.38581
0.787226 0.151998 0.0780279
0.789745 0.15196 0.0807617
1.02129 -0.0231571 0.101228
0.844351 0.0366094 0.0121864
0.939562 -0.142505 0.105636
0.996169 0.0266263 0.102076
1.17543 -0.130617 -0.205124
1.10127 0.0295129 -0.261482
0.790739 -0.122976 -0.373371
0.931891 0.132223 -0.25801
1.03988 -0.0192554 0.0743861
0.956307 -0.190856 0.0427533
1.04957 0.0153843 -0.188753
1.00288 -0.00251991 0.0982535
0.998452 0.017707 0.102033
0.864773 0.00938867 -0.00497586
0.979072 -0.079834 -0.532905
0.913739 -0.0250222 -0.375886
0.890948 0.0595574 -0.252936
0.863238 -0.0960733 -0.427187
1.21566 -0.0357087 -0.282411
1.22627 -0.03145 -0.266286
0.989346 0.00156218 -0.0711751
0.88578 -0.0270048 -0.121219
0.902714 0.0390022 -0.27539
0.797891 -0.0254495 -0.0313108
0.861584 0.0204221 -0.340424
1.07398 -0.264842 -0.362468
1.00105 0.00243816 -0.191041
0.903434 0.0470094 -0.267698
0.78686 0.141548 0.0681424
0.879398 0.0280898 0.143679
0.858991 0.0193729 -0.358685
0.848757 0.0856433 -0.257566
0.828272 0.16041 0.0751045
0.878849 0.161151 0.0966365
1.22636 -0.0338266 -0.253635
0.909226 0.0432069 -0.276417
1.22799 -0.0740482 -0.172936
1.09862 0.0481964 -0.158126
0.8332 0.234853 -0.35166
0.810537 -0.229591 -0.310025
0.787934 0.0135463 -0.0189548
1.13087 -0.228634 -0.375406
0.762092 -0.0128196 0.0572696
1.01464 0.0886317 -0.386755
0.888093 0.0328659 -0.279299
0.890523 0.0300586 -0.280326
0.798543 -0.222682 -0.234656
0.885885 0.0314222 -0.281696
0.998744 0.0630166 -0.53026
0.828187 -0.0494793 -0.233613
1.00984 0.11539 -0.60013
0.825777 -0.0482191 -0.231405
0.786078 -0.138221 -0.113226
1.05351 -0.265216 -0.245339
0.923309 0.0824792 -0.532907
0.834696 0.079748 -0.273724
0.828502 0.081184 0.0251063
0.823131 0.163736 0.0832592
0.808112 0.163051 0.074527
0.817106 0.0771805 -0.298783
0.730554 -0.119034 -0.235317
0.850602 -0.219813 -0.11061
0.775088 0.161654 -0.393313
0.886613 0.0647048 -0.249052
1.09503 -0.0104868 -0.35969
0.958398 -0.228604 -0.029407
0.844213 0.0833049 -0.263596
0.882707 0.0708693 -0.246987
0.897243 -0.236768 -0.294067
1.19424 0.0484016 -0.189615
1.0019 0.119089 -0.587664
0.997534 0.00777793 -0.0915866
0.89393 0.0316443 -0.280266
1.18569 0.0594275 -0.157652
0.873995 0.0106143 -0.394019
0.860432 -0.053591 -0.230708
0.797341 0.0765 -0.337782
0.987145 0.0584487 -0.343708
1.21671 -0.0738804 -0.152861
1.00643 0.021013 -0.334039
0.912792 -0.0326297 -0.23209
0.835126 0.183102 -0.26508
0.875751 0.108506 -0.240911
0.871958 0.106849 -0.242268
0.80487 0.165757 0.117338
0.900131 -0.0310054 -0.2105
1.10224 -0.23112 -0.457095
0.825536 0.126195 0.125956
0.921803 -0.026872 -0.207648
0.970345 0.000290752 -0.0362474
1.09162 -0.249158 -0.416545
1.23359 -0.107122 -0.186189
0.961135 0.00407582 -0.0232361
1.1188 -0.0218541 -0.0298765
1.1103 -0.0214234 -0.0239197
0.971997 0.0734602 0.100913
0.841563 0.17567 0.0991661
0.915201 0.0819493 -0.526404
0.918115 -0.0276494 -0.208947
1.10737 -0.02062 -0.021291
0.928744 -0.0259497 -0.205295
0.926154 -0.0262556 -0.20604
1.18809 -0.0651436 -0.104969
0.936028 0.0846965 -0.556425
0.802531 -0.0517779 -0.0453204
0.870169 -0.0071646 -0.0209047
0.870414 -0.00807425 -0.0237691
0.837896 -0.04609 -0.252958
0.91988 -0.0892339 0.13312
1.08133 -0.192847 -0.0612616
0.920728 0.0827652 -0.531267
0.911515 -0.0608001 0.14046
0.842068 0.0424488 0.0141777
0.890931 0.029786 -0.280637
1.12032 -0.232769 -0.374981
0.797693 -0.0226702 -0.0307071
0.79546 -0.0110136 -0.0273474
0.871278 -0.0109112 -0.0267897
1.00908 0.142227 -0.464324
0.8014 -0.0485297 -0.0429124
1.05337 0.12359 -0.597196
1.19015 0.0531066 -0.181456
0.797409 -0.0345095 -0.0356056
0.798265 -0.0388978 -0.0380487
1.01297 0.0163507 -0.342174
0.786128 -0.0651209 0.0508685
0.799164 -0.0417977 -0.0389258
0.861495 -0.0379169 -0.285576
0.91627 0.0941158 -0.503555
0.977875 -0.0134226 -0.194267
1.04323 -0.0025286 -0.425822
0.912901 -0.205878 0.0457902
0.946625 -0.209958 0.0303493
0.999726 0.145011 -0.30926
0.9905 0.0748309 -0.342976
0.822238 -0.124964 -0.0620752
0.983908 0.0564643 -0.501024
0.812905 -0.154204 -0.391495
0.808905 -0.068206 -0.0756731
0.815126 -0.130874 -0.0817443
0.870884 -0.229969 -0.109024
0.824973 -0.124398 -0.0463001
0.823749 -0.124405 -0.0562886
1.15371 -0.0252238 -0.0596501
1.11239 -0.166108 -0.543624
1.01697 -0.088706 0.0909338
0.862593 0.0635822 0.139118
1.01534 0.0114137 -0.188229
0.947849 0.0132909 -0.000392556
0.945244 0.0163667 0.00408566
0.79903 -0.0732705 0.0383361
0.9566 -0.188567 0.0418202
1.04597 0.00808749 -0.346771
0.956142 -0.189891 0.0419213
0.824828 -0.115346 0.0254457
0.884139 0.110087 -0.239711
0.958942 -0.184167 0.0422034
1.11528 0.0257265 -0.280629
1.00609 -0.238983 -0.0726243
0.970786 -0.240154 -0.0707241
1.01268 -0.234796 -0.0716256
0.77952 0.0705202 0.00271318
0.779748 0.0597075 -0.00373616
0.931374 -0.246435 -0.0968908
0.894905 0.05523 -0.256972
0.78063 0.0887673 0.0158868
0.804527 0.166256 0.115998
0.893949 -0.198248 0.0377715
0.945741 -0.206578 0.0423578
0.901021 -0.238521 -0.293516
1.02701 0.164627 -0.399202
0.86333 -0.0529381 -0.229583
1.09532 0.0292618 -0.249722
0.803754 0.0837278 -0.298127
0.939708 -0.205839 0.0547182
1.15175 -0.17778 -0.209411
0.949896 -0.16442 0.0922965
1.04836 0.136604 -0.501776
0.754664 -0.190854 -0.185304
0.808567 -0.0675277 -0.0701735
0.980385 0.0949474 -0.620007
0.775057 -0.209276 -0.198857
0.808087 -0.0657938 -0.0626248
0.808173 -0.0667006 -0.0662904
0.985123 -0.144926 0.0650029
0.930172 -0.118985 0.120046
0.858422 0.0186971 -0.376727
1.00489 0.119176 -0.59573
0.745934 -0.170203 -0.174628
0.803777 -0.0550882 -0.0478021
0.781434 -0.212443 -0.202059
0.88255 0.0296525 -0.289051
0.80091 0.0847878 -0.398369
1.07354 -0.0816695 -0.549403
0.81314 0.0763656 -0.301922
1.05872 0.128598 -0.589363
0.858807 -0.0833358 -0.41151
0.815628 -0.100316 0.0298842
1.05404 0.0136764 -0.18138
0.838012 -0.0462451 -0.28123
0.765741 -0.163609 -0.133999
0.769597 -0.161901 -0.129278
0.827383 -0.130281 0.00221801
1.11146 -0.164131 -0.544914
0.773519 -0.159838 -0.125088
0.861286 -0.225584 -0.109959
0.771379 -0.160901 -0.127302
0.74832 -0.183125 -0.184481
1.13228 -0.139522 -0.0521686
1.16782 -0.137751 -0.206138
0.748506 0.0557236 0.06352
1.23112 -0.0446722 -0.250922
0.811948 -0.0925264 0.0315685
1.16958 0.0153089 -0.0867778
0.927663 -0.0156701 -0.321153
0.997009 -0.126905 0.0748187
0.74391 -0.17238 -0.228934
1.22767 -0.0202534 -0.232978
0.81197 0.172031 0.103804
0.890163 0.00389665 0.145179
0.890607 -0.0297525 -0.320669
1.00912 -0.102626 0.0847325
0.975334 -0.0804732 -0.52973
0.95241 0.169395 -0.497641
0.865232 0.141922 -0.473429
0.827773 -0.128423 -0.00284761
1.22347 -0.0742641 -0.167879
0.935411 0.0844568 -0.55497
0.88754 -0.0264333 -0.13117
0.987281 -0.254364 -0.12607
0.756509 -0.166912 -0.146228
0.769889 -0.0298005 0.0568131
0.744931 -0.170906 -0.182865
0.897097 0.0384006 -0.274344
0.820252 -0.126217 -0.0680007
0.821347 -0.12541 -0.0650076
0.808288 -0.0692356 -0.0853898
0.744178 -0.17239 -0.219521
0.838935 0.025085 -0.40454
0.803669 -0.227971 -0.284218
0.744278 -0.172213 -0.215581
0.810708 0.226351 -0.365717
0.873501 -0.0166061 -0.0415944
0.803896 -0.227606 -0.274755
0.977438 -0.00158203 -0.0469461
0.822016 -0.0469219 -0.22361
0.759539 -0.169625 -0.295573
0.79347 -0.00280557 -0.0235355
0.765625 -0.0216333 0.0569521
0.948261 0.209159 -0.300833
0.791586 0.0807554 -0.371731
0.735072 -0.124911 -0.183834
0.913133 -0.243262 -0.102618
0.795781 -0.0653907 -0.252639
1.02222 0.0940266 -0.42966
0.822732 -0.0598987 -0.241032
0.808279 0.0841713 -0.409139
0.767051 -0.0919943 -0.273046
0.794687 0.0835766 -0.38627
0.793547 0.0782844 -0.351262
1.03916 0.175693 -0.350324
0.796079 0.157032 0.0878542
1.02628 -0.00111405 -0.417275
1.21163 -0.120421 -0.194182
0.765831 -0.0932316 -0.27363
0.778816 -0.0774772 -0.266126
0.768181 -0.0901135 -0.27259
0.769478 -0.0880448 -0.272203
1.08615 -0.249359 -0.376429
0.987421 -0.00674194 -0.193022
0.819378 -0.0457461 -0.219635
0.825277 -0.200309 -0.11161
0.828741 0.11999 0.126127
0.737126 -0.124951 -0.179674
0.852413 -0.040535 -0.274752
1.01198 0.0253727 -0.289687
1.20427 0.0374594 -0.205576
0.83479 -0.208083 -0.111027
1.20211 -0.123472 -0.197534
1.02988 0.0247866 -0.144461
1.04651 -0.272496 -0.290129
1.00313 0.000309687 -0.407118
0.812847 -0.0471852 -0.198411
0.808758 -0.0628129 -0.144258
0.776483 0.148239 0.0848815
0.948156 -0.0232203 -0.199567
0.800933 0.21523 -0.374005
0.989375 0.0809585 -0.314477
0.83646 -0.0442097 -0.25039
0.904551 -0.0243842 -0.339307
0.902041 -0.0255043 -0.336007
0.874839 -0.0319925 -0.301822
0.778216 -0.162024 -0.351235
0.900274 0.0026561 -0.382334
0.994347 0.0616486 -0.521285
0.914586 -0.0298186 -0.376009
0.784519 -0.133904 -0.113616
0.862258 0.0206974 -0.336886
0.994305 -0.00235555 -0.192101
1.0913 -0.247209 -0.37601
1.00804 0.0239105 -0.311922
0.990576 0.0530593 -0.344955
0.946415 -0.0888794 -0.502937
0.909958 -0.0318174 -0.222308
0.903062 -0.032851 0.144551
0.879774 -0.0324009 -0.306993
1.10642 0.0490862 -0.154646
0.871345 -0.033124 -0.297593
0.837013 -0.0463753 -0.272245
0.808524 -0.183785 -0.112166
1.16926 -0.13544 -0.205967
0.844021 -0.214416 -0.11059
1.18777 -0.12473 -0.201665
0.744843 -0.171888 -0.195
0.756841 0.110421 0.0748002
1.14283 -0.196764 -0.213731
0.905441 -0.241849 -0.292309
1.03906 -0.273491 -0.26996
1.00053 -0.275938 -0.275043
1.04627 -0.215581 -0.0666602
0.815949 -0.231779 -0.307358
0.880964 0.00957733 -0.391135
0.950229 -0.0955484 -0.502699
0.887222 -0.030978 -0.316174
1.23524 -0.0987512 -0.184896
0.7627 -0.168608 -0.30327
0.896271 -0.033444 -0.213803
0.80935 -0.0703311 -0.10692
1.23257 -0.0474972 -0.248248
0.821983 -0.236508 -0.306838
0.862967 0.0108036 -0.00481647
0.793305 0.157505 0.087458
0.868638 -0.0342784 -0.294212
0.772507 -0.164681 -0.339863
1.01131 0.142577 -0.462338
0.925304 0.0818108 -0.536519
0.854979 -0.0400213 -0.277865
0.837986 -0.244379 -0.304436
0.84132 -0.244612 -0.303689
0.765086 -0.167405 -0.321271
0.874556 0.102729 -0.481101
0.942767 0.0195937 0.00848854
0.731583 -0.118338 -0.240991
0.733035 -0.117268 -0.247122
1.01778 -0.272097 -0.265271
0.847789 0.221898 -0.420752
1.09842 -0.239213 -0.441182
1.09062 0.0291536 -0.240376
0.867998 -0.245284 -0.29945
0.983886 0.0973532 -0.475115
0.90202 -0.10394 -0.457535
0.903231 -0.240183 -0.292967
0.792472 -0.21707 -0.214179
1.2021 -0.0708713 -0.127112
1.00036 0.100129 -0.322252
0.830713 -0.0582623 -0.238663
1.00692 0.0130303 -0.10833
0.83525 0.109283 0.128846
0.887287 -0.236194 -0.107508
0.750303 -0.167646 -0.162453
0.852393 0.149629 0.0415291
0.80321 -0.226608 -0.261594
0.9644 -0.0197835 -0.196304
0.885355 -0.239301 -0.294824
1.01764 0.0909184 -0.393735
0.762255 0.125198 0.0791299
1.00679 -0.109428 0.0823861
0.89739 -0.128763 -0.45349
0.748607 0.0407386 0.06168
0.894743 -0.122728 -0.450851
0.897848 -0.0317737 -0.212667
0.925686 -0.0290055 -0.39121
0.921825 -0.0959849 -0.48711
1.09497 -0.244424 -0.428576
1.00904 0.0152928 -0.112803
1.10401 -0.238536 -0.374881
1.22214 -0.00828135 -0.192517
1.12592 0.0213933 -0.294324
1.09699 -0.241128 -0.435736
1.16125 -0.155608 -0.206554
1.03888 -0.263417 -0.418657
1.17143 -0.0470897 -0.0756705
0.792049 0.0815827 -0.377035
0.923932 0.0821382 -0.534389
1.04584 -0.26471 -0.414032
0.837948 -0.211233 -0.379192
1.01055 -0.000353593 -0.410362
0.920204 -0.0321565 -0.400208
0.917858 -0.0335887 -0.404245
1.001 0.142433 -0.309912
1.08056 -0.0987774 -0.547884
0.873047 0.248183 -0.31123
0.78179 0.0994698 0.026118
1.22556 -0.013828 -0.21129
0.835078 -0.0476435 -0.262707
0.839773 -0.0463691 -0.255932
0.830298 -0.0464929 -0.252316
0.831306 -0.0459546 -0.254705
0.824016 -0.0478082 -0.227916
1.01545 -0.0106421 -0.483162
0.927108 -0.0178655 -0.383287
1.08784 -0.0255218 -0.449991
1.21748 -0.0163884 -0.241165
0.924576 -0.0379363 -0.26976
0.929757 -0.0237683 -0.317406
1.0154 -0.273285 -0.26712
0.81321 -0.132549 -0.0867485
0.928433 -0.024688 -0.385946
0.922964 -0.0120128 -0.37072
0.913493 0.13581 0.0970048
0.869569 0.0236485 -0.312856
0.86816 0.0230555 -0.317635
0.864166 -0.128315 -0.437742
0.994898 0.161715 -0.299882
0.842916 0.0194541 -0.40414
0.868526 0.122502 -0.480718
1.09338 -0.067372 -0.52729
1.19909 0.0438967 -0.197361
0.863715 -0.177703 0.0269951
1.06491 -0.00958581 -0.437603
0.871993 0.131504 0.0268372
1.10419 -0.0459752 -0.457919
0.841896 0.246279 -0.391496
0.729905 -0.122972 -0.205327
1.07845 -0.093151 -0.549257
0.855896 -0.0759935 -0.398733
0.817323 0.22213 -0.340727
0.917606 -0.0810159 0.137158
0.991597 0.0814972 -0.317511
0.829482 0.0323805 -0.407469
0.83291 -0.0461479 -0.257981
0.819157 -0.127038 -0.0710934
0.826235 0.0352154 -0.407714
0.975535 -0.014659 -0.194551
0.890903 -0.121446 -0.448282
0.824272 0.0408522 -0.408396
1.22428 -0.0114486 -0.204658
0.89651 0.00537562 -0.383926
0.80983 0.0787926 -0.300042
0.861145 0.0203922 -0.344829
0.793548 0.0826521 -0.38195
0.787555 -0.0695491 -0.257093
0.807766 -0.0841886 0.0337562
0.791418 -0.0675337 -0.254918
0.861338 -0.0913018 -0.422096
0.943048 -0.0372378 -0.481652
0.858161 -0.0392811 -0.281589
0.944469 0.108718 0.0999407
0.852501 0.204287 -0.436916
0.7826 0.108383 0.0336977
0.831496 -0.191928 -0.395709
0.751675 -0.166951 -0.27677
1.08826 -0.117254 -0.550138
0.961592 -0.273952 -0.289245
0.806926 -0.156008 -0.381091
1.05019 -0.00410704 -0.429404
0.841598 -0.045284 -0.25972
1.06408 -0.268412 -0.335305
0.806992 -0.0632513 -0.0561297
1.02423 -0.256063 -0.426822
1.11691 -0.0719639 -0.460617
0.831176 0.213988 -0.291409
1.09975 -0.240785 -0.374933
0.956623 -0.190348 0.0449337
1.11093 -0.21458 -0.488805
0.929286 -0.0332271 -0.291133
0.854001 0.0206525 0.000151455
1.07419 -0.0151995 -0.442771
0.988606 -0.220956 -0.43963
1.0831 -0.104064 -0.548511
1.12699 -0.222229 -0.221273
0.84202 0.238376 -0.345301
1.01991 -0.0110331 -0.489574
1.00238 -0.074732 -0.544049
0.849851 0.249762 -0.323054
1.00684 0.0808265 -0.464086
1.00373 0.078366 -0.46545
0.915259 -0.0340054 -0.408283
0.99369 -0.00901394 -0.445304
0.990963 0.102025 -0.623831
1.11741 -0.183946 -0.527924
0.762107 -0.0977808 -0.275191
0.870254 0.000367165 -0.00994539
1.03458 -0.273688 -0.258468
0.79711 -0.0189961 -0.0294293
0.99593 0.0804277 -0.331774
0.802899 -0.227429 -0.267086
1.02562 0.0136626 -0.34325
0.99128 0.215801 -0.391421
0.933914 -0.127425 0.116033
0.910332 -0.244901 -0.291384
0.998378 -0.00809903 -0.453781
1.21224 -0.000448942 -0.162234
0.879874 0.0757181 -0.496235
1.06814 0.0004481 -0.352668
0.917164 0.0828218 -0.528776
1.1734 -0.00666414 -0.0820672
0.980614 -0.212763 -0.442261
1.01161 0.192554 -0.394979
1.0591 -0.269224 -0.322188
0.921244 -0.0371286 -0.255729
1.11629 -0.192273 -0.517983
1.0611 0.0272834 -0.193907
0.97097 -0.274502 -0.286307
1.06158 -0.268765 -0.328651
1.07154 -0.266028 -0.355528
1.08064 -0.00540146 -0.355837
1.08404 0.0275327 -0.228775
0.955502 0.0069465 -0.013005
0.821026 -0.18126 -0.397177
0.807787 -0.065067 -0.0589666
1.17118 -0.133098 -0.205666
0.800644 -0.17551 -0.112378
1.04068 0.0105212 -0.345547
0.865125 0.138052 0.031693
0.886713 0.0115437 0.146252
0.8747 -0.117109 -0.436201
1.24129 -0.0598924 -0.227059
1.16139 -0.0311363 -0.0619043
0.948335 -0.0268982 -0.458906
1.03592 0.0197722 -0.214471
1.04598 0.0168293 -0.194693
1.14661 0.0465165 -0.138525
1.19282 -0.124111 -0.200589
0.953766 -0.0843998 -0.512595
1.22504 -0.0308656 -0.251226
0.778227 -0.0773027 -0.264626
0.854978 0.0181034 -0.00211436
0.880393 -0.0240861 -0.0875869
0.847492 -0.0521778 -0.329786
0.762697 -0.109531 -0.321073
0.987616 -0.0781787 -0.537832
1.12291 -0.228546 -0.223013
0.845471 0.0684219 -0.483402
0.840173 0.048678 0.0157664
0.786618 0.151385 0.0761135
0.760995 -0.165262 -0.14029
1.23669 -0.0909256 -0.184805
1.15633 -0.0704994 -0.0445272
0.894928 -0.0432135 -0.443872
0.926276 -0.10966 0.122393
0.751393 -0.167151 -0.278729
0.868723 0.105117 -0.244592
1.14885 -0.184646 -0.210388
0.836221 -0.0478138 -0.267089
1.00114 -0.263097 -0.167684
0.962542 -0.233654 -0.0448446
0.817523 -0.0454377 -0.215101
0.787214 0.195432 -0.382378
0.914645 -0.0313178 -0.37615
0.869903 -0.00497958 -0.0158844
0.964858 0.00204384 -0.0283031
0.966973 0.00141454 -0.0314526
0.973181 -0.0156504 -0.194797
0.786283 0.141164 0.0648905
0.800991 -0.226069 -0.250648
0.883627 -0.193327 0.0334845
0.792631 -0.14605 -0.108183
1.05397 -0.0154623 0.0548887
0.788078 -0.150149 -0.112845
0.981099 -0.149269 0.0620698
1.05274 0.0142304 -0.183297
1.0106 -0.099636 0.0862858
0.814389 0.0580123 -0.413824
0.879493 -0.232963 -0.108198
0.846388 0.0938811 0.131495
0.831348 -0.124277 0.0241188
0.857247 -0.0553071 -0.231202
0.886373 0.195738 -0.262547
0.818846 0.0774462 -0.295057
0.928546 0.0821379 -0.540486
0.898504 0.0040198 -0.383101
1.11479 -0.162276 -0.0555479
0.859247 0.224644 -0.292856
1.17741 -0.185179 -0.369424
0.823233 0.0780091 -0.288055
1.0083 0.106143 -0.623326
0.821249 0.0603419 -0.431208
0.810375 -0.0493282 -0.186983
1.15049 -0.0220228 -0.0574084
1.0217 0.17224 -0.397727
0.93089 0.246685 -0.375413
1.21739 -0.00450478 -0.177478
1.17271 0.0276964 -0.103367
0.826845 -0.133485 0.0126632
1.14369 0.0141017 -0.31224
1.21381 -0.00120182 -0.166025
1.20429 0.00293012 -0.148538
0.917175 0.0980961 -0.502706
0.844243 -0.24489 -0.303451
0.872537 -0.0129536 -0.0320936
1.19638 0.00567891 -0.121807
1.02964 0.160591 -0.39945
0.906358 -0.203348 0.0425493
0.809098 -0.0541649 -0.169771
0.921962 -0.0144302 -0.366016
0.905387 -0.142383 -0.456398
0.934735 0.0842421 -0.552144
1.03373 0.154673 -0.44013
1.08089 -0.018849 0.00182009
1.05681 -0.0476078 -0.542495
0.894425 -0.0273543 -0.166131
0.785292 0.126091 0.0516998
0.999631 0.119302 -0.316374
1.00623 0.0830225 -0.369858
1.03182 0.114094 -0.613745
0.816104 0.146239 0.124359
0.987729 0.000438929 -0.0669341
0.933575 0.128618 -0.258518
0.81857 0.122673 0.0390019
1.17619 -0.0535955 -0.0843584
0.976363 0.0283773 -0.42618
0.998065 0.119164 -0.577805
0.80707 -0.156913 -0.378541
1.08604 0.0281996 -0.232244
1.0291 0.113716 -0.615005
1.02963 0.0205064 -0.228803
0.805919 -0.0605018 -0.0533028
1.2397 -0.0573176 -0.232023
0.809326 -0.0523247 -0.175116
1.16623 -0.0473556 -0.337914
0.991527 0.162044 -0.311445
1.04604 0.136118 -0.498692
0.891134 -0.115795 -0.446079
0.837291 -0.0587253 -0.236748
1.01776 0.179369 -0.396574
1.01899 0.0199182 -0.12791
0.999753 0.134931 -0.312986
1.12984 0.019995 -0.298268
0.914638 0.0732318 0.013027
1.192 -0.0383744 -0.314898
0.946083 0.0636059 -0.287963
0.852992 -0.060764 -0.358609
1.21614 -0.00316055 -0.172759
1.00011 0.209107 -0.392855
0.773498 -0.207494 -0.197247
1.15923 -0.160624 -0.206836
0.843479 0.240542 -0.398414
1.14166 -0.0222834 -0.0512166
0.803632 0.0849219 -0.403027
0.786761 -0.213432 -0.205141
1.07929 -0.0181636 0.00430834
1.14459 -0.0229276 -0.0539715
0.981567 0.110242 -0.480457
0.819856 -0.22789 -0.331605
1.03338 0.0206323 -0.219819
1.04203 -0.0184515 0.0711896
0.866044 -0.0523179 -0.228438
0.751144 0.0910674 0.0703107
0.812483 0.0571257 -0.413275
0.952428 0.00907928 -0.0076732
1.19415 0.00449288 -0.116598
0.987976 -0.276019 -0.280183
0.855182 0.228126 -0.299921
0.941402 -0.0632884 -0.500629
1.18597 0.00100765 -0.101297
1.02244 0.0947054 -0.414977
0.779837 0.0814778 0.0106581
1.1811 -0.00154407 -0.0946774
1.23404 -0.0727125 -0.187792
1.17293 0.0298703 -0.108295
1.16729 0.0399069 -0.132568
0.929558 0.122308 0.0989779
0.958555 0.0918512 0.100637
0.846966 0.0265216 0.00485098
0.893227 -0.00608695 0.142859
0.90919 0.23946 -0.301034
1.05696 -0.015372 0.050354
1.16635 -0.048225 -0.337693
1.11058 -0.162454 -0.546023
0.795086 0.0792676 -0.363325
0.987099 0.057202 -0.34366
1.00434 0.140788 -0.46607
0.858559 0.14443 0.0363658
1.14071 0.0154853 -0.309245
0.968815 -0.0811531 -0.526012
0.924379 0.0525751 -0.280485
0.986513 0.121992 -0.548487
0.877987 0.0273853 -0.298182
1.23613 -0.0930928 -0.184949
1.11786 -0.186836 -0.526053
0.800974 -0.0645714 -0.249379
0.921945 -0.0116636 -0.370765
0.967284 0.0726074 -0.29868
0.863934 0.102525 -0.250026
1.15171 -0.0361614 -0.0456594
1.1168 -0.182716 -0.528502
0.819248 0.224878 -0.342304
1.11714 -0.189421 -0.522117
0.925351 0.142778 -0.256889
1.01402 -0.269102 -0.204593
0.936429 -0.0252295 -0.202759
0.75179 -0.167262 -0.158545
1.11773 -0.185186 -0.527243
0.779182 0.0657174 -0.000743169
0.929515 0.0823708 -0.541637
0.990375 0.065079 -0.33983
0.822091 0.13151 0.126659
0.797265 -0.070277 0.0403164
0.991424 0.0667215 -0.338956
0.894667 0.00663871 -0.384997
0.832766 0.224148 -0.307
0.90474 -0.110951 -0.455844
0.786315 0.147282 0.0720177
0.794922 -0.127434 -0.378344
1.01961 0.0925759 -0.399549
0.930609 0.0826346 -0.543291
0.955139 0.0679335 -0.291305
1.00081 0.139306 -0.467047
0.889872 0.0339477 -0.27785
1.00525 -0.00335091 0.0990217
1.22498 -0.114918 -0.191151
0.971908 0.227409 -0.387135
1.10726 -0.171248 -0.0573009
0.88286 0.247078 -0.306633
0.926118 -0.259193 -0.288771
1.17383 -0.0501415 -0.0794579
0.93278 0.130524 -0.258111
0.907653 -0.0234414 -0.34327
1.07468 0.0246537 -0.213336
0.95935 0.15127 -0.49687
0.887059 0.156913 0.0973315
0.975127 -0.156997 0.0573748
1.11674 -0.234718 -0.224848
0.983656 0.221808 -0.389808
0.990695 -0.00450101 -0.192573
0.941063 0.211617 -0.484017
0.842258 0.0824209 -0.266928
0.754097 -0.167052 -0.152216
0.812417 -0.229628 -0.31629
1.11209 -0.210387 -0.495625
1.01417 0.0862774 -0.456322
1.08341 -0.0187101 -0.00114155
0.811121 0.156802 0.122634
0.894687 0.104506 0.015219
0.989818 0.0747418 -0.342096
1.02276 0.111963 -0.617271
0.899468 -0.0969432 -0.458629
1.00665 0.020554 -0.331036
1.01482 0.184407 -0.395904
0.942299 -0.0417633 -0.486934
0.869829 0.118029 -0.481074
0.950103 -0.0991011 -0.500749
0.989368 0.15567 -0.281295
1.0872 -0.00814369 -0.357516
0.953026 -0.174495 0.080859
0.931703 0.0564154 -0.283463
1.11272 -0.0622757 -0.460217
0.990825 0.121084 -0.557009
0.900799 -0.0303353 -0.209781
0.729447 -0.121564 -0.215733
1.06733 -0.076471 -0.54436
0.815951 -0.129948 -0.0795851
0.996796 0.000342365 -0.404357
0.974313 0.147769 -0.492212
0.779648 0.0758507 0.00649863
0.827496 0.0339109 -0.407766
1.12754 -0.147072 -0.0530533
1.23205 -0.110064 -0.187072
0.956393 -0.191289 0.0435839
0.824875 -0.237868 -0.306231
0.918157 -0.0188686 -0.358106
0.853818 -0.0697037 -0.384813
0.767207 0.135222 0.082253
0.902292 -0.0372967 -0.429677
0.941953 -0.0700134 -0.502537
0.912962 -0.03472 -0.411889
0.86585 0.136341 -0.476179
1.13114 -0.0230887 -0.0403838
0.946116 -0.204551 0.0564537
0.951 -0.0235616 -0.447785
0.903869 0.0855908 -0.502788
0.894857 -0.0351922 -0.214817
0.922736 -0.0131952 -0.368202
0.861215 0.10381 -0.250066
0.73218 -0.124157 -0.193935
0.820885 0.0418576 -0.409174
0.841484 0.0216042 -0.404468
0.933595 -0.0257396 -0.203591
0.922994 -0.0124583 -0.369725
0.958449 0.00517523 -0.0181093
0.863362 0.246192 -0.348125
0.784294 0.131401 -0.298645
0.968922 0.186243 -0.30757
0.766689 -0.109496 -0.327465
0.99643 -0.00129196 -0.191847
1.06298 0.137884 -0.53361
1.00289 -0.00880474 -0.463009
0.857304 -0.0804606 -0.40619
0.927528 0.0818593 -0.53905
1.16068 -0.2075 -0.373016
1.03726 -0.220243 -0.0678686
0.927627 -0.206399 0.0513159
0.846345 -0.245698 -0.303607
1.01159 0.0709093 -0.556449
0.950854 0.197167 -0.48865
1.0281 0.0989836 -0.612156
0.951188 0.173438 -0.495492
0.85413 0.198579 -0.44119
0.760816 -0.101009 -0.274556
0.79794 -0.0289837 -0.0321138
0.992006 0.157512 -0.288446
0.938911 -0.245702 -0.0945183
0.961771 0.181594 -0.492351
0.862603 0.160214 -0.465014
0.961028 -0.180807 0.0437216
1.0858 -0.110855 -0.549359
1.02012 0.109896 -0.617826
1.23319 -0.108029 -0.186486
0.88146 0.0291289 -0.291479
1.0908 -0.123414 -0.550028
0.828836 0.0636379 -0.449291
0.907233 -0.0310226 -0.21225
1.23279 -0.108948 -0.186941
0.757826 -0.107028 -0.273107
0.891371 -0.0717581 -0.460071
0.899088 -0.0312439 -0.211495
0.870897 -0.000583947 -0.0115706
1.02708 0.0174407 -0.18565
0.776785 0.133243 -0.400318
0.902428 0.250774 -0.437515
0.806096 0.0752932 -0.313956
0.811547 -0.0480946 -0.192641
1.11617 -0.196637 -0.51348
1.16575 -0.140672 -0.206195
1.08588 -0.249985 -0.376638
0.957615 0.155931 -0.496548
0.879422 0.250416 -0.358614
0.820016 0.135287 0.125813
0.914595 -0.15593 -0.458254
0.729295 -0.120751 -0.222278
0.818125 0.129442 0.0472978
0.804734 -0.22712 -0.278215
0.991479 -0.27696 -0.278789
0.92749 -0.0367491 -0.282586
1.14706 -0.0232588 -0.0548898
0.851151 0.232473 -0.307246
0.824251 0.101514 0.0328208
0.889791 -0.0594472 -0.457103
1.13526 -0.226622 -0.375533
0.828972 -0.0464666 -0.250372
0.982117 0.170819 -0.308989
1.13503 -0.0448786 -0.413502
0.950904 -0.0995272 -0.500957
0.730315 -0.165581 -0.180962
1.00421 0.00474045 -0.190502
0.75481 0.102105 0.0727064
0.808437 -0.0697277 -0.0909614
1.1149 -0.0214586 -0.0267831
0.862746 0.0139178 -0.399307
0.861487 0.0169606 -0.397658
0.864585 0.0130296 -0.398397
0.939661 0.0843118 -0.570123
1.0087 0.0844511 -0.375024
1.2367 -0.0927676 -0.185316
0.837081 0.0270141 -0.40481
0.750778 -0.186599 -0.185039
0.956787 -0.0178955 -0.423633
0.965303 0.0817783 0.100858
0.744771 -0.17184 -0.209401
0.833887 0.0292844 -0.406236
1.17955 -0.0942894 -0.35229
0.826384 -0.124843 -0.0284307
0.864265 0.219296 -0.28564
0.837 0.0658965 -0.467745
0.844874 0.233698 -0.407511
0.843763 0.23802 -0.402387
0.899923 -0.0290488 -0.189584
0.88032 0.0752758 -0.245479
0.812714 -0.231055 -0.30729
0.808708 -0.0560735 -0.163418
1.00825 0.14198 -0.464613
0.906015 0.114181 -0.241759
0.815796 -0.046253 -0.208893
0.981399 -0.00589716 -0.424469
1.02021 0.147365 -0.455325
0.861459 0.0173886 -0.395415
0.880198 0.028526 -0.294345
0.850881 0.0239524 0.00344402
0.947558 -0.182885 -0.452461
0.935138 0.0844001 -0.553915
1.01357 0.143751 -0.461275
0.859378 0.017361 -0.390097
0.823491 -0.185418 -0.39701
0.942351 0.215297 -0.299904
0.889358 -0.237059 -0.294025
0.814742 -0.231159 -0.307152
0.782535 0.187568 -0.384343
0.935561 0.222397 -0.299403
0.745341 -0.172076 -0.24772
1.24221 -0.0849904 -0.181892
0.914392 -0.0351781 -0.37693
0.744113 -0.172397 -0.224253
1.17796 -0.00326568 -0.0896718
0.776343 -0.0810856 -0.26781
0.890253 0.191609 -0.259087
1.16374 -0.0150994 -0.0668721
0.830307 0.0640537 -0.453041
1.15508 -0.173029 -0.208592
0.77448 -0.0385832 0.0559697
0.87579 0.099958 -0.481083
0.897236 -0.029119 -0.17784
1.00602 0.021103 -0.336462
0.883695 -0.0321503 -0.311503
0.912166 -0.0186498 -0.376738
0.851204 0.208599 -0.433498
1.01034 0.0179798 -0.341707
0.916137 -0.0192838 -0.35527
0.828731 0.232603 -0.348735
0.776665 -0.210742 -0.200064
0.911586 -0.0220247 -0.348541
0.876025 -0.117363 -0.436304
0.73503 -0.116111 -0.253494
0.899335 0.0346206 -0.277568
0.835288 0.235448 -0.352929
0.813471 0.228846 -0.363531
1.21025 -0.121007 -0.194816
0.791364 0.202173 -0.378586
0.988769 -0.1393 0.0685465
1.01919 -0.0168783 0.101351
0.893797 -0.037174 -0.215593
0.769553 -0.109753 -0.33424
0.947619 -0.159369 0.0963727
0.743762 -0.172221 -0.233838
0.853333 -0.134571 -0.429514
0.790442 0.152067 0.0819502
0.783149 0.116145 0.039874
0.928432 -0.0233755 -0.385015
0.89097 0.10951 0.0166216
0.841257 0.0670852 -0.477424
0.987192 0.0561584 -0.344146
0.876651 0.0984833 -0.480963
0.846514 0.084459 -0.260731
0.910433 0.251545 -0.369681
0.745222 -0.170487 -0.187845
0.831778 0.159628 0.0694782
0.900941 0.252872 -0.367508
0.814301 -0.158057 -0.393052
0.87899 -0.0229903 -0.0778738
0.829603 0.0784713 -0.278116
0.731041 -0.117375 -0.190098
0.785013 0.123798 0.0486873
0.758375 -0.194068 -0.187101
0.748868 -0.168273 -0.165998
0.78272 0.0420123 -0.00991229
0.749993 0.0663745 0.0657492
1.06823 -0.0765547 -0.544549
0.994441 0.0822111 -0.320565
0.870981 -0.112786 -0.435137
0.824662 0.162514 0.0805439
0.859291 0.0697241 0.136611
0.993105 0.00457311 -0.0812328
1.21627 -0.11981 -0.196264
0.759166 -0.165969 -0.142624
0.85779 -0.131515 -0.433594
1.06181 -0.0161995 0.0405468
0.790397 -0.216611 -0.211926
0.992059 0.0682259 -0.338231
0.808829 -0.0703173 -0.0962778
0.860374 0.0138197 -0.00290257
0.957558 -0.188716 0.0465106
0.810288 0.159127 0.121613
0.863907 0.153928 -0.467442
0.839156 0.170002 -0.255164
0.862779 0.168226 0.0966637
0.846075 0.230668 -0.323806
0.805814 0.0842997 -0.406666
0.814459 -0.175489 -0.39664
0.879038 0.123966 0.0225722
0.882693 0.119731 0.0204969
0.783003 0.111889 0.0369129
0.784353 -0.0579619 0.0522787
1.09784 -0.0193726 -0.0146201
1.17021 -0.00931755 -0.0774992
0.944068 -0.0331854 -0.476026
0.77054 -0.0868453 -0.271889
0.835678 0.158455 0.0630447
0.906228 -0.240558 -0.104043
1.17585 0.0357264 -0.116298
0.751373 0.0772759 0.0672972
0.839138 0.103947 0.12974
0.92991 0.227716 -0.299662
0.941361 0.241397 -0.378576
1.02853 -0.226904 -0.0694855
0.916339 0.235702 -0.300308
1.01924 -0.270771 -0.217776
0.923504 0.232108 -0.299668
1.05192 0.137456 -0.506215
0.789532 0.155459 0.0866365
0.784429 -0.116308 -0.363346
0.83948 0.0813228 -0.270179
1.05517 -0.0373861 -0.539338
0.884226 -0.0433404 -0.220762
0.781675 0.0475235 -0.00797584
0.962595 -0.0104045 -0.401883
1.08843 -0.019318 -0.00828373
0.751646 0.0201448 0.059063
1.05226 -0.0331816 -0.535374
1.0579 -0.0413882 -0.541167
0.921952 0.0825877 -0.532042
0.829008 -0.22468 -0.345342
0.728188 -0.146609 -0.16056
0.90603 -0.116286 -0.456065
0.879553 0.0917135 -0.482219
0.878706 0.0939044 -0.481735
0.808476 -0.0603396 -0.15089
1.04652 -0.0033198 -0.427503
0.871634 -0.243653 -0.298754
0.831533 -0.223494 -0.350679
1.20189 0.0407054 -0.201649
0.957406 -0.0219203 -0.197543
0.865633 0.0562817 0.141608
1.23552 -0.0934514 -0.184737
0.872806 0.0424593 0.142628
0.826725 -0.126257 -0.0168146
0.826005 -0.124575 -0.0343229
0.827444 -0.127032 -0.0104792
0.868463 0.1348 0.0294893
0.929696 0.0421332 0.0169469
0.831915 0.199442 -0.277239
1.01657 -0.250302 -0.430304
0.871946 -0.0118046 -0.0292369
0.91625 -0.0987292 -0.482113
0.913006 -0.0218267 -0.376286
0.896405 -0.0890953 -0.460261
0.847762 -0.053855 -0.338277
0.840837 0.099277 0.130586
0.820603 0.11165 0.0370355
0.794532 0.0767908 -0.342462
0.811042 0.155938 0.067077
0.908885 -0.0517349 0.14036
0.912404 0.16357 -0.251431
0.870671 -0.0092973 -0.0254418
0.868769 0.0111442 -0.395901
0.964934 -0.173601 0.0476354
0.865311 -0.101848 -0.431263
1.12676 -0.230184 -0.374949
0.733167 -0.124637 -0.189577
0.92837 -0.0260725 -0.38672
0.806756 0.207289 -0.33179
1.0395 0.0183843 -0.207462
0.961187 -0.241065 -0.0869269
0.973483 0.130354 -0.516333
0.753288 -0.110458 -0.300116
0.888031 -0.237854 -0.294125
0.869584 -0.109638 -0.434084
0.826118 -0.22569 -0.341976
1.0505 0.136996 -0.50432
0.784338 0.121459 0.045276
0.838886 -0.0473172 -0.288941
1.00074 0.11072 -0.318363
0.775538 0.142508 -0.399484
0.89069 0.254585 -0.364002
0.791248 0.0031455 -0.0223964
0.84535 0.0178641 -0.403674
0.95149 -0.220228 -0.000430226
0.880069 -0.0457929 -0.222776
0.781052 -0.0510557 0.0539002
1.09349 -0.129823 -0.549609
0.978441 0.129621 -0.487253
0.841739 0.156673 0.0535061
1.11655 -0.190481 -0.520018
0.989327 -0.00880817 -0.437177
0.808365 -0.136052 -0.0938295
0.820138 0.0422774 -0.409838
0.923116 -0.100432 0.125405
1.23842 -0.0881851 -0.185062
0.751304 -0.1678 -0.274303
1.16718 0.0092994 -0.0789567
0.864259 0.0216942 -0.329892
0.825306 -0.145438 -0.409867
1.03258 0.114514 -0.613258
1.167 -0.0040324 -0.332517
0.814553 0.217958 -0.338394
0.935191 -0.206529 0.0534681
0.89101 -0.0397261 -0.217275
1.16787 -0.0521604 -0.337615
0.858781 0.018923 -0.373991
0.882727 0.199747 -0.265597
0.744975 -0.172014 -0.241984
0.779037 -0.212016 -0.201505
0.963262 -0.00905871 -0.399254
0.800891 -0.22565 -0.247409
0.898062 -0.0272655 -0.33055
1.0069 0.000506084 -0.408675
0.781496 0.0954709 0.0224555
0.841715 0.248196 -0.388449
1.15869 -0.0285312 -0.0604994
0.772192 -0.0860282 -0.270756
1.16502 -0.203621 -0.372224
0.862195 0.140787 0.0338941
0.85544 0.14702 0.0386766
0.906186 -0.0410392 0.142634
0.815383 -0.0613066 -0.243118
0.730621 -0.123682 -0.199899
0.819976 -0.0605103 -0.241897
0.812056 0.0842498 -0.412418
0.82285 -0.226774 -0.337288
1.06425 0.0268166 -0.199277
0.881728 -0.240553 -0.295976
0.822117 0.163543 0.0868117
0.906027 -0.119245 -0.457269
1.12811 0.0511287 -0.146712
0.90937 0.167591 -0.252059
1.00981 -0.267407 -0.192953
1.05549 0.139073 -0.512466
0.805505 -0.0632004 -0.247416
0.806681 -0.136952 -0.0961772
1.06786 0.025268 -0.20429
0.913795 -0.020355 -0.351857
0.763277 -0.168571 -0.312248
0.876136 -0.0482219 -0.224285
0.824348 -0.124259 -0.0522662
0.921249 -0.245486 -0.100181
0.967722 0.00854467 -0.396713
1.21596 0.0240301 -0.221896
1.22057 -0.0741896 -0.160348
1.15585 -0.0194106 -0.0604465
0.938872 0.0856771 -0.564
0.864523 -0.0361662 -0.2892
0.797802 -0.220553 -0.227879
0.988345 0.0545399 -0.344746
0.90293 -0.0293941 -0.199966
0.987135 0.0441114 0.102541
1.01506 0.0741179 -0.564295
0.902544 -0.0285125 -0.208284
0.798925 0.190947 -0.323584
1.11528 0.0502637 -0.151266
0.800894 -0.225003 -0.243147
0.802517 -0.226485 -0.256581
0.956779 -0.186934 0.0410218
1.02714 0.020788 -0.235624
0.786952 0.168969 -0.31128
0.852702 -0.0561257 -0.232223
1.19893 -0.0702526 -0.122148
0.836602 -0.219659 -0.363385
0.832407 -0.0454057 -0.227594
0.973723 -0.274862 -0.285729
1.22732 -0.0193509 -0.229854
1.02284 0.0949429 -0.421902
0.804925 -0.22818 -0.290348
1.09277 0.0288465 -0.244103
1.01444 0.0251726 -0.278448
0.826636 -0.131582 0.00496215
0.878152 0.094937 -0.481297
0.856885 -0.168491 0.0248975
0.919449 0.082765 -0.530418
0.8095 -0.0703233 -0.112514
1.11358 -0.168606 -0.541203
0.80646 0.0826562 -0.408499
0.998608 0.000306129 -0.191486
1.01137 0.00855514 -0.189113
0.850069 -0.0555228 -0.345729
0.746888 -0.171063 -0.255304
0.814956 -0.228749 -0.321245
0.874063 -0.0174631 -0.0453342
1.1308 -0.215855 -0.219651
0.78224 -0.114041 -0.358427
0.785573 0.161505 -0.30826
1.0259 0.0228892 -0.13844
1.0571 0.011134 -0.176627
0.893726 0.00717419 -0.385571
0.940078 -0.176578 -0.453386
0.890339 -0.0276699 -0.142408
0.730266 -0.11974 -0.228818
0.9194 -0.0274695 -0.208345
1.23702 -0.0706571 -0.197207
0.844221 -0.0436153 -0.264305
0.877638 -0.24116 -0.29725
0.773148 -0.0845034 -0.26968
0.780542 -0.0756134 -0.262651
0.893443 0.0365394 -0.276515
0.841577 -0.0574682 -0.235448
1.09712 -0.242558 -0.374973
0.875008 0.248449 -0.356023
1.21801 -0.119403 -0.19529
0.808353 0.0757119 -0.309955
0.811777 -0.133883 -0.089366
0.983104 0.0519463 -0.44937
0.796974 -0.219729 -0.224404
0.869749 0.00169875 -0.00910932
0.814237 -0.131662 -0.0841943
0.80732 0.163744 0.120005
1.15027 0.0459895 -0.137203
0.874962 0.0258543 -0.302598
0.848852 0.217201 -0.425781
1.01707 0.0885595 -0.449794
0.776277 -0.110842 -0.346509
0.802667 -0.13974 -0.100258
0.804681 -0.138335 -0.0981962
1.06868 -0.0122685 -0.439588
0.801672 -0.136534 -0.384794
0.980334 -0.00137812 -0.0523368
1.02825 0.102963 -0.615037
0.916175 0.0476663 -0.278255
0.759483 0.12055 0.0771771
1.15345 -0.0389569 -0.362877
0.955032 -0.0190425 -0.430611
1.17132 0.0211626 -0.0957087
0.836348 -0.199462 -0.391424
0.956243 0.160391 -0.497114
0.808931 -0.065198 -0.131103
0.761729 -0.197165 -0.189184
0.871702 -0.125105 -0.442602
0.816295 -0.148677 -0.402054
0.76499 -0.200362 -0.191577
0.941285 -0.057173 -0.497994
0.816073 0.0710382 -0.302266
0.812496 -0.172573 -0.395459
0.833837 -0.222053 -0.354767
1.06657 -0.268177 -0.3418
0.912077 0.077297 0.0136636
0.900029 -0.200452 0.0397954
1.03035 -0.00238695 -0.41882
0.876954 0.205935 -0.270925
0.840538 -0.0482177 -0.296645
1.07232 -0.25996 -0.240966
0.92264 0.129684 0.098132
0.826159 -0.123949 -0.0396345
0.876078 0.0347608 0.14173
1.20894 -0.072462 -0.13851
1.00043 0.00934845 -0.0973209
0.797725 -0.0366167 -0.0370923
0.784561 -0.0730034 -0.260125
0.939171 0.0601822 -0.285678
0.768442 -0.203359 -0.193968
0.804845 -0.0575242 -0.0495567
0.875541 -0.0188299 -0.0509104
0.798994 -0.13274 -0.382542
1.19079 -0.066858 -0.109311
0.914294 -0.033128 -0.376449
0.764221 -0.0957974 -0.274501
0.849092 0.0873027 0.133811
0.848363 -0.155305 0.0229579
0.951149 0.175024 -0.49552
0.852376 0.0815052 0.136015
0.811069 -0.15026 -0.390056
0.83188 0.114074 0.127238
0.945811 -0.0236581 -0.200197
0.783612 0.118859 0.0422471
0.803589 0.201256 -0.32868
0.811289 -0.0621171 -0.244565
0.89654 -0.239004 -0.105882
1.11932 0.050425 -0.150067
1.1092 -0.236527 -0.374944
0.941398 -0.0519118 -0.494931
0.873372 0.106078 -0.481491
0.987446 0.06135 -0.342123
0.894843 -0.236151 -0.294382
0.773437 -0.110161 -0.341266
1.00616 -0.275838 -0.272108
0.747591 -0.170977 -0.259499
0.756951 -0.108755 -0.272992
0.964817 -0.196602 -0.446105
0.913899 -0.0350066 -0.379254
0.908085 -0.243431 -0.291385
0.99923 0.0935366 -0.32507
0.928907 -0.0934409 -0.490711
0.85528 -0.0732529 -0.392288
0.783631 0.15615 -0.305619
1.02997 0.0120508 -0.343886
0.79452 -0.00780781 -0.0260555
0.979644 -0.2423 -0.0758064
1.02978 -0.0241454 0.0862387
0.775509 0.152952 -0.3963
0.830998 -0.240189 -0.305582
0.996213 -0.260437 -0.15339
0.880263 0.261053 -0.410596
0.753222 -0.167094 -0.154875
0.86135 0.166674 -0.461594
1.07601 -0.0177257 0.0102869
0.812269 0.0842147 -0.414106
0.810592 -0.230825 -0.307672
0.914942 0.159841 -0.25157
0.860329 0.172206 -0.45828
1.0274 -0.272378 -0.23861
1.16296 -0.146313 -0.2068
0.869331 -0.05149 -0.227221
1.11625 -0.194026 -0.51624
0.985621 -0.00609623 -0.430769
1.17651 -0.0379431 -0.332783
1.23039 -0.111323 -0.188153
1.16841 -0.00669965 -0.333181
1.19014 -0.124225 -0.201084
0.876212 -0.0206907 -0.0555198
0.771289 0.142135 0.0838406
0.794113 -0.218032 -0.217231
0.795515 0.07901 -0.356803
0.970798 -0.163743 0.0528623
0.909301 -0.149143 -0.45796
0.919846 -0.161451 -0.457962
0.989651 0.0590589 -0.511597
1.0946 -0.245066 -0.375558
0.828971 -0.239071 -0.30566
0.895881 -0.0143145 0.143753
1.11565 -0.198795 -0.51088
1.10722 0.0288204 -0.270684
0.881902 -0.0240681 -0.0981758
0.798759 0.0911419 -0.297074
0.983164 -0.251201 -0.113391
0.85207 0.249221 -0.321705
0.914003 -0.0281712 -0.375739
0.842601 0.243737 -0.394506
1.15935 -0.0180345 -0.0624914
0.893599 -0.0808018 -0.461089
1.15438 0.045831 -0.136105
0.845426 0.251447 -0.378883
0.978524 0.0771186 -0.304562
0.875458 -0.117544 -0.436236
1.21266 -0.0732676 -0.145795
1.07103 0.0246541 -0.207238
0.926914 0.140569 -0.257035
0.731562 -0.115566 -0.193274
0.857765 0.185773 -0.449218
1.06295 0.027285 -0.197294
0.967633 0.0602643 -0.468281
1.19765 -0.123724 -0.198944
0.809271 0.161161 0.121096
0.986607 0.0593237 -0.343575
1.04845 -0.272395 -0.294659
0.973883 0.0754463 -0.301219
0.74451 -0.171899 -0.238577
0.954787 -0.224521 -0.015181
1.00699 -0.0100403 -0.469208
1.05871 -0.262101 -0.245403
1.01629 -0.0116021 0.100899
0.793885 0.100043 -0.296422
0.858135 -0.246699 -0.302365
0.99174 -0.25802 -0.140042
0.826366 0.0783834 -0.28515
0.917786 -0.0368065 -0.243797
0.755063 0.00950341 0.0578076
0.928057 -0.0215116 -0.384364
0.872053 0.110125 -0.481767
0.87969 0.203116 -0.268132
0.920186 -0.0180671 -0.361238
0.816919 -0.228327 -0.325844
1.13598 -0.0234981 -0.0461999
1.01541 0.0186818 -0.122921
0.807012 -0.229242 -0.299961
1.09561 0.0480442 -0.159444
0.855071 -0.247217 -0.303482
0.984948 0.0675487 -0.458807
1.05135 -0.271616 -0.302127
0.861573 0.0173434 -0.397587
0.892528 -0.116807 -0.447616
0.852084 0.0882374 -0.253368
0.959522 -0.0212704 -0.197319
0.918566 0.0981704 -0.502699
0.927542 -0.0194573 -0.384041
0.844394 -0.138307 -0.423368
0.732736 -0.167339 -0.180748
0.78631 -0.0705888 -0.258628
1.01702 -0.0696065 -0.552628
0.860703 0.0175202 -0.392763
0.99873 -0.0760264 -0.54244
0.96019 -0.014224 -0.411134
0.972344 -0.204319 -0.444656
0.808456 -0.0685625 -0.0803251
0.862307 -0.0935672 -0.42469
0.984766 0.0826977 -0.467841
0.87656 0.0100613 -0.392987
0.873374 -0.0153431 -0.037805
0.836534 -0.135243 0.0229685
1.074 -0.00346819 -0.354179
0.82665 -0.125537 -0.0223707
0.830084 0.159758 0.0721505
1.23665 -0.0894317 -0.184328
0.827599 0.0782019 -0.281407
0.939017 0.0856024 -0.565449
0.85913 0.258078 -0.375554
0.848703 0.249355 -0.324433
0.857818 0.0161969 -0.00196826
0.868482 0.214448 -0.280549
1.01912 0.0906403 -0.444254
0.945685 -0.0309431 -0.470356
0.826813 -0.0588915 -0.23974
0.848549 0.0174578 -0.402941
1.14032 -0.224245 -0.37528
1.05776 0.0118131 -0.17505
1.24145 -0.0868787 -0.183347
0.797501 -0.0335112 -0.0350702
0.84162 -0.144843 0.0222899
1.1823 -0.0614545 -0.0974459
0.744857 -0.171957 -0.20454
0.967513 -0.0186577 -0.195744
1.0557 -0.26444 -0.246302
0.901483 -0.0294197 -0.209169
1.15122 -0.0382906 -0.0457839
0.979748 0.0374472 -0.437324
0.902996 0.241586 -0.303127
0.905031 0.173071 -0.253232
0.937929 -0.089483 -0.498793
0.810268 0.0841967 -0.411037
0.954795 0.205077 -0.302377
0.796373 0.186257 -0.321072
1.22716 -0.0178155 -0.225558
0.778967 0.124472 -0.402287
0.94714 -0.0286951 -0.464361
0.809004 -0.0701715 -0.101624
1.23448 -0.104536 -0.185332
1.20845 0.0330412 -0.211789
0.990859 0.00339431 -0.0762127
0.761262 -0.0999869 -0.27471
0.95127 -0.169882 0.0844312
0.8092 -0.0686481 -0.11915
0.948365 -0.0949497 -0.501542
0.779368 -0.112138 -0.3528
0.789011 -0.0711009 0.0493826
0.956473 -0.18974 -0.449225
1.17791 -0.0566711 -0.0894738
0.884055 0.0304505 -0.286135
0.933022 -0.0916522 -0.494492
0.877546 0.0963792 -0.480919
0.892105 -0.114336 -0.445325
0.874912 0.0749513 -0.495155
1.07633 -0.0861194 -0.550211
0.825808 0.0395433 -0.408138
0.729168 -0.141267 -0.163952
0.892119 -0.236393 -0.294685
0.826813 -0.188576 -0.397045
0.782706 0.11474 -0.4038
0.833694 0.0648565 -0.461676
0.979978 0.125543 -0.53222
0.938747 -0.268064 -0.29007
0.768015 -0.16633 -0.329755
1.02353 -0.0306933 0.100877
0.967847 0.0128917 -0.398336
0.999104 0.0900172 -0.326821
0.796738 -0.0158544 -0.0283925
1.105 -0.150914 -0.549416
1.14644 -0.190678 -0.211835
1.13215 0.0505938 -0.14492
0.86031 0.102172 -0.251443
0.963338 -0.0820445 -0.521769
0.746939 -0.169446 -0.171357
0.790641 0.152356 0.0825077
0.744845 -0.172025 -0.199756
0.819717 -0.10781 0.0276845
1.00568 -0.265409 -0.181008
1.11525 -0.0673778 -0.460773
1.02286 -0.0268632 0.0932646
0.808657 -0.063808 -0.137848
0.944265 -0.0823162 -0.504277
1.02251 0.023222 -0.248302
0.804801 -0.140691 -0.386345
0.815973 0.138304 0.0564229
0.737318 -0.11484 -0.259545
0.834774 -0.141764 -0.417697
0.798781 -0.223354 -0.237575
0.820616 0.234532 -0.358782
0.864252 -0.0990423 -0.429524
1.00362 0.0111383 -0.102712
1.10247 -0.146858 -0.549908
0.93069 -0.0287957 -0.303913
0.982734 0.0543142 0.1023
0.888331 -0.195462 0.035521
0.931188 0.0829461 -0.544535
0.810571 0.0759477 -0.305715
0.91756 0.155673 -0.252275
1.22128 0.0053708 -0.234101
1.16433 -0.142728 -0.206487
0.992765 0.158249 -0.292155
0.809018 -0.0664699 -0.125157
1.07878 0.0246188 -0.219703
0.847825 0.143308 -0.242992
0.873932 0.208732 -0.274369
0.995786 0.0823086 -0.32294
0.860855 0.0204114 -0.349344
1.0355 0.0115737 -0.344613
0.844747 -0.0502727 -0.312925
1.13181 -0.0482493 -0.430759
0.759613 -0.109801 -0.314393
0.921169 -0.0165517 -0.363579
0.854236 -0.066383 -0.375836
0.826134 0.0907095 0.028656
0.87979 0.246286 -0.308797
0.756125 -0.170359 -0.289311
0.818039 -0.127919 -0.074133
0.780589 0.0538151 -0.00589223
0.78551 0.0244171 -0.0151644
0.831112 0.233802 -0.35028
1.03672 0.115866 -0.612887
1.00678 0.0679448 -0.548232
0.835881 -0.220653 -0.358844
0.882607 0.019839 0.145565
0.931862 0.0833986 -0.54656
1.00043 0.129988 -0.314257
0.787475 -0.119513 -0.368876
0.861503 0.01676 -0.398887
0.851025 0.0870354 -0.255459
0.9275 -0.0280047 -0.38813
0.898501 -0.236809 -0.294137
1.14404 -0.114427 -0.048956
0.745129 -0.170894 -0.17865
1.18984 -0.163676 -0.36574
0.818126 0.058937 -0.427926
0.764889 -0.0946105 -0.274291
0.851347 -0.0570997 -0.351359
1.03689 -0.0207776 0.0781659
0.999645 -0.242679 -0.0737035
0.948146 -0.214847 0.0177605
1.00119 0.140631 -0.310771
1.04291 0.0173899 -0.200871
0.785579 0.132264 0.0575023
0.842917 -0.0496364 -0.305311
0.894288 -0.0283931 -0.325588
0.80148 0.195569 -0.32607
1.22975 -0.0419398 -0.251642
1.09134 -0.186408 -0.0596661
0.798607 -0.221876 -0.232022
1.21853 -0.0056445 -0.181537
0.834404 -0.243002 -0.305218
1.19212 0.0504923 -0.185862
1.11583 -0.176426 -0.532543
0.854997 0.0776332 0.136881
1.11852 0.0242696 -0.284725
0.951202 -0.0225233 -0.19884
0.994224 0.119467 -0.567057
0.854017 -0.0633994 -0.366988
0.922963 0.146852 -0.254917
0.784821 -0.15973 -0.363907
0.82212 0.0415302 -0.408951
0.883541 -0.0254564 -0.108456
0.847097 -0.0520691 -0.321158
0.837837 -0.207871 -0.3831
1.04747 -0.0168746 0.0633028
0.846073 0.230704 -0.324142
0.967733 -0.16804 0.0503676
0.814447 0.0732068 -0.301386
0.995732 0.0773496 -0.333464
0.967864 -0.27483 -0.287075
1.06171 0.130787 -0.579993
0.866675 0.0224982 -0.322474
