ply
format ascii 1.0
element vertex 1785
property float x
property float y
property float z
end_header
0.559192 1.16403 -0.322053
0.542642 1.26045 -0.294847
0.481024 1.30336 -0.270514
0.544302 1.1693 -0.339074
0.5239 1.28399 -0.274734
0.541178 1.17051 -0.343272
0.53486 1.29985 -0.194445
0.579926 1.36731 -0.184633
0.574959 1.36878 -0.182365
0.62233 1.33519 -0.191679
0.6746 1.33956 -0.188834
0.68521 1.33818 -0.185793
0.621187 1.32481 -0.194512
0.623839 1.35031 -0.190276
0.628008 1.35072 -0.191554
0.635237 1.34886 -0.190574
0.569037 1.16289 -0.316265
0.562145 1.16361 -0.32085
0.553244 1.27694 -0.274499
0.554348 1.16598 -0.324162
0.55966 1.20014 -0.318739
0.494106 1.28176 -0.221067
0.55657 1.21633 -0.313787
0.49112 1.27938 -0.243651
0.490184 1.27907 -0.248035
0.476849 1.29191 -0.225527
0.61329 1.16536 -0.279743
0.643857 1.08922 -0.124764
0.607416 1.30371 -0.21697
0.718848 1.3167 -0.158326
0.717077 1.32324 -0.156519
0.622266 1.36725 -0.179771
0.642136 1.34607 -0.188258
0.572592 1.06706 -0.220047
0.524238 1.07128 -0.173241
0.576382 1.06708 -0.21384
0.509193 1.06157 -0.186572
0.562012 1.0877 -0.118372
0.527649 1.29317 -0.203135
0.55309 1.08282 -0.133348
0.497287 1.28183 -0.238315
0.609363 1.15344 -0.0505084
0.4905 1.32655 -0.0889453
0.592924 1.12084 -0.0779704
0.661676 1.10726 -0.100688
0.493828 1.33356 -0.0858255
0.570923 1.28145 -0.256887
0.51166 1.19277 0.00654517
0.508108 1.18767 0.00296007
0.615085 1.16376 -0.0380046
0.65218 1.09822 -0.113107
0.446713 1.27769 0.0310307
0.66563 1.11252 -0.095509
0.638653 1.38431 0.0815042
0.640869 1.22154 0.0110527
0.650355 1.25692 0.0233971
0.555428 1.34007 -0.172082
0.655115 1.27896 0.0275368
0.540946 1.24544 0.0412012
0.637315 1.17509 -0.258114
0.647901 1.24467 0.020118
0.720077 1.35516 -0.0133865
0.734008 1.35566 -0.0448113
0.448258 1.30464 0.0355119
0.559509 1.36391 0.0952201
0.561213 1.34625 0.0945247
0.557955 1.37176 0.0955171
0.660013 1.37447 0.0405944
0.665195 1.36774 0.0450392
0.718892 1.32331 -0.0248769
0.599106 1.35977 -0.187756
0.701537 1.35181 -0.146233
0.701254 1.34975 -0.147031
0.719833 1.29372 -0.164306
0.702154 1.37098 -0.140121
0.69758 1.18333 -0.0523332
0.626063 1.38588 -0.18031
0.701947 1.36347 -0.141922
0.701489 1.36007 -0.142748
0.545182 1.0954 -0.310632
0.719412 1.28692 -0.16608
0.71767 1.27807 -0.168847
0.66603 1.36792 0.0446065
0.663478 1.36764 0.0451286
0.717067 1.30363 -0.0278036
0.658993 1.30035 0.0314528
0.638748 1.21607 0.00730202
0.65227 1.41508 0.0463379
0.652542 1.41224 0.0466837
0.653673 1.40088 0.0472569
0.48855 1.39476 -0.0964334
0.482783 1.38681 -0.0846714
0.65387 1.38428 0.0489519
0.718839 1.337 -0.0236606
0.683124 1.36566 0.0352983
0.654164 1.3908 0.0482285
0.726585 1.3581 -0.0212444
0.558546 1.36884 0.0955032
0.558267 1.37025 0.0957226
0.648956 1.45463 0.0357977
0.700966 1.35447 -0.144948
0.732755 1.35673 -0.0362992
0.717634 1.41637 0.000577758
0.526092 1.49682 0.0687011
0.556578 1.37577 0.0978221
0.644597 1.48335 0.0232523
0.650534 1.44455 0.0391602
0.650706 1.43924 0.0399031
0.518522 1.51091 0.0592665
0.548073 1.4323 -0.160602
0.579798 1.62313 -0.0667618
0.633257 1.56556 -0.206934
0.538211 1.45122 -0.174442
0.539675 1.64373 -0.122706
0.717189 1.29182 -0.0284878
0.558341 1.35046 -0.166944
0.540263 1.46184 0.0872196
0.591669 1.61289 -0.0522282
0.715234 1.32861 -0.154504
0.71344 1.33258 -0.152946
0.711939 1.33423 -0.152097
0.664066 1.36756 0.0451198
0.710271 1.33602 -0.150862
0.69895 1.48537 -0.163938
0.733011 1.35661 -0.0580533
0.718023 1.34948 -0.0223993
0.599095 1.06902 -0.185231
0.661449 1.32684 0.0376702
0.701175 1.48076 -0.162052
0.627159 1.55204 -0.00821219
0.570698 1.63229 -0.24951
0.708483 1.45455 -0.152323
0.604783 1.58765 -0.241039
0.555595 1.64697 -0.230014
0.552315 1.64324 -0.245347
0.532771 1.65313 -0.23384
0.586457 1.6115 -0.255921
0.60127 1.58977 -0.247055
0.594958 1.57473 -0.261928
0.556272 1.1685 -0.325268
0.584615 1.58668 -0.26087
0.583176 1.61735 -0.254475
0.574423 1.51706 -0.260475
0.61227 1.45425 -0.19951
0.595099 1.56793 -0.262421
0.545104 1.56392 -0.340931
0.569677 1.58338 -0.287567
0.629852 1.56854 -0.209901
0.70748 1.40697 -0.142269
0.555751 1.16602 -0.323917
0.69088 1.49788 -0.168682
0.687783 1.50201 -0.17019
0.661332 1.32137 0.0360105
0.695165 1.49127 -0.166058
0.617044 1.44102 -0.19206
0.70057 1.34212 -0.151617
0.580447 1.52487 -0.262317
0.503283 1.65484 -0.183286
0.55257 1.49653 -0.25065
0.726541 1.3782 -0.000763353
0.524218 1.47698 -0.232897
0.590043 1.48637 -0.223461
0.578096 1.49324 -0.239054
0.568294 1.50954 -0.258279
0.557132 1.50392 -0.255122
0.548676 1.39436 -0.153975
0.502999 1.47013 -0.214857
0.498948 1.46966 -0.211638
0.525726 1.29195 -0.206428
0.592219 1.61598 -0.167713
0.471135 1.38514 -0.452634
0.582271 1.52741 -0.26267
0.525632 1.5472 -0.371158
0.490271 1.46845 -0.239282
0.487528 1.46182 -0.245813
0.532279 1.49787 -0.288136
0.524291 1.4882 -0.305907
0.530781 1.4964 -0.291303
0.492144 1.4908 -0.42683
0.592529 1.58719 -0.251073
0.591565 1.58719 -0.251972
0.523318 1.64709 -0.261973
0.707675 1.24885 -0.183022
0.6543 1.3916 0.0479941
0.581564 1.58674 -0.26418
0.503007 1.65743 -0.216042
0.481702 1.65429 -0.218126
0.528667 1.48092 -0.235515
0.625214 1.40563 -0.180485
0.50236 1.47491 -0.223319
0.509513 1.52388 -0.399504
0.474115 1.44445 -0.266034
0.519612 1.4636 -0.198471
0.51343 1.64294 -0.276367
0.508032 1.6407 -0.284459
0.722033 1.35278 -0.116656
0.563772 1.63609 -0.248934
0.538166 1.50169 -0.279057
0.482417 1.45515 -0.253972
0.489314 1.65381 -0.206661
0.614485 1.44823 -0.19561
0.612424 1.58275 -0.23182
0.480397 1.64978 -0.202712
0.452937 1.65102 -0.25886
0.466024 1.4322 -0.278167
0.479573 1.46091 -0.442036
0.507116 1.43358 -0.355646
0.588981 1.28951 -0.238166
0.452913 1.39799 -0.293256
0.647626 1.55379 -0.196908
0.450695 1.39447 -0.293736
0.39644 1.6214 -0.332968
0.549611 1.56747 -0.331546
0.546823 1.50485 -0.26556
0.572653 1.58484 -0.2812
0.529909 1.55136 -0.365587
0.529246 1.49498 -0.294243
0.535299 1.64569 -0.24561
0.526281 1.65538 -0.228982
0.533167 1.64569 -0.248171
0.483535 1.29716 -0.266294
0.421128 1.40015 -0.49292
0.485937 1.65024 -0.206461
0.427386 1.40027 -0.49084
0.660969 1.53286 -0.0742426
0.470354 1.37456 -0.450929
0.465417 1.40661 -0.454903
0.441727 1.3996 -0.485076
0.344463 1.39528 -0.480275
0.485744 1.37109 -0.338767
0.563364 1.5786 -0.301422
0.650594 1.43631 0.0405914
0.561367 1.57662 -0.306925
0.507491 1.42144 -0.360805
0.492664 1.28049 -0.240775
0.508137 1.45163 -0.344369
0.251632 1.37584 -0.306476
0.53668 1.26841 -0.298096
0.251621 1.37857 -0.305662
0.281272 1.39268 -0.407578
0.248158 1.38086 -0.370191
0.733818 1.35642 -0.0409926
0.251591 1.37701 -0.306276
0.252793 1.39247 -0.369437
0.251032 1.39782 -0.365017
0.247291 1.37947 -0.311583
0.386819 1.39602 -0.49586
0.388314 1.39654 -0.496685
0.277661 1.38496 -0.437212
0.282494 1.3857 -0.43847
0.729095 1.35612 -0.0839633
0.254417 1.4279 -0.350907
0.248637 1.38625 -0.369944
0.249205 1.3879 -0.369388
0.24829 1.3872 -0.368751
0.321412 1.39449 -0.467268
0.312277 1.47196 -0.420174
0.38006 1.39586 -0.49417
0.484508 1.4738 -0.436094
0.446863 1.38298 -0.290291
0.444576 1.38188 -0.281886
0.44627 1.38229 -0.286216
0.302882 1.45083 -0.425617
0.304779 1.45628 -0.424845
0.252017 1.3963 -0.366239
0.256549 1.43469 -0.347385
0.247748 1.38645 -0.357139
0.290766 1.52077 -0.299937
0.296544 1.42216 -0.429804
0.377361 1.41553 -0.244122
0.287531 1.46399 -0.280705
0.379389 1.49868 -0.151902
0.377085 1.50478 -0.14758
0.398694 1.48078 -0.17457
0.648991 1.45682 0.0344494
0.317056 1.53476 -0.224932
0.344021 1.55445 -0.180588
0.48707 1.46145 -0.246238
0.412008 1.62599 -0.157103
0.536306 1.30157 -0.192144
0.542496 1.56212 -0.345639
0.488364 1.16031 -0.0176887
0.592848 1.55457 -0.261801
0.458584 1.04365 -0.232425
0.50936 1.65824 -0.218822
0.413866 1.61688 -0.150708
0.501595 1.65681 -0.214658
0.6424 1.49506 0.0166109
0.486882 1.65085 -0.207218
0.503043 1.51217 -0.411214
0.552658 1.63996 -0.104047
0.591532 1.5854 -0.253265
0.504327 1.37344 -0.386218
0.43751 1.22356 0.00599149
0.465919 1.65661 -0.237074
0.556055 1.63891 -0.0989669
0.429516 1.64068 -0.289757
0.71782 1.273 -0.029013
0.460421 1.65552 -0.244488
0.557485 1.29967 0.072775
0.423932 1.53188 -0.414127
0.440696 1.04619 -0.255201
0.499654 1.50567 -0.416647
0.664378 1.19379 -0.228577
0.511715 1.65178 -0.169473
0.504798 1.40104 -0.363284
0.523407 1.64796 -0.148685
0.501548 1.37188 -0.372768
0.460784 1.48258 -0.22147
0.498406 1.65574 -0.211239
0.380147 1.59499 -0.132028
0.48261 1.55842 0.00921908
0.416986 1.61731 -0.144257
0.588887 1.61536 -0.0557096
0.459791 1.42025 -0.287304
0.449765 1.48874 -0.00133408
0.440515 1.47654 -0.149465
0.43714 1.63917 -0.174671
0.479696 1.65514 -0.221487
0.276436 1.39297 -0.402618
0.355092 1.55704 -0.160516
0.548428 1.38122 -0.156842
0.352891 1.5568 -0.16415
0.441322 1.64611 -0.273699
0.248914 1.33813 -0.368308
0.599614 1.47487 -0.212273
0.402034 1.62054 -0.159124
0.669363 1.34041 -0.188376
0.447177 1.59215 -0.0546979
0.491406 1.5497 0.0223125
0.47886 1.43542 -0.106173
0.46721 1.45069 -0.116572
0.458261 1.46 -0.125606
0.468809 1.04641 -0.225143
0.368242 1.56138 -0.127169
0.375891 1.5411 -0.112566
0.279259 1.20585 -0.330088
0.520924 1.20764 0.0153352
0.346289 1.55538 -0.175233
0.547457 1.26115 0.0484998
0.448446 1.4698 -0.137913
0.442335 1.64077 -0.178151
0.508984 1.19444 -0.378715
0.477743 1.64913 -0.201097
0.401482 1.52803 -0.0832543
0.507231 1.47105 -0.218117
0.325355 1.15253 -0.280763
0.432154 1.15291 -0.394642
0.412913 1.61655 -0.149903
0.501352 1.53695 0.035458
0.481349 1.43106 -0.104548
0.367169 1.552 -0.128207
0.469755 1.57189 -0.00997381
0.461684 1.33763 -0.291973
0.473466 1.0398 -0.232449
0.489231 1.4018 -0.0982849
0.537397 1.64513 -0.242984
0.398437 1.16165 -0.0649098
0.644909 1.23415 0.0157255
0.529974 1.64703 -0.137131
0.252279 1.37928 -0.305495
0.468946 1.41071 0.0401704
0.483252 1.65475 -0.21574
0.337316 1.51751 -0.400303
0.336695 1.39526 -0.476554
0.65157 1.42764 0.0432312
0.527031 1.64726 -0.142074
0.678164 1.50282 -0.0473047
0.440334 1.47942 -0.207977
0.640175 1.50642 0.0123274
0.446607 1.49487 -0.00918506
0.480279 1.4328 -0.105152
0.357169 1.58987 -0.230661
0.400333 1.62006 -0.163212
0.551223 1.42342 -0.154628
0.480122 1.65501 -0.220591
0.419562 1.61445 -0.141067
0.517224 1.6507 -0.158874
0.587149 1.48829 -0.227582
0.558956 1.37683 -0.166895
0.465553 1.64553 -0.193645
0.491822 1.65358 -0.202849
0.423945 1.61345 -0.123965
0.651726 1.54842 -0.192478
0.417381 1.62886 -0.160835
0.44429 1.49857 -0.0157283
0.268401 1.47358 -0.326041
0.5153 1.53343 -0.388136
0.35783 1.30574 -0.486989
0.448639 1.38332 -0.295144
0.420081 1.25341 -0.129576
0.461186 1.42417 -0.285071
0.325735 1.56766 -0.26451
0.502495 1.0854 -0.305622
0.320896 1.56303 -0.269375
0.442035 1.38098 -0.27744
0.653228 1.38232 0.0510392
0.701653 1.3685 -0.140367
0.4875 1.65341 -0.209523
0.347098 1.39545 -0.481411
0.313982 1.53008 -0.23092
0.52867 1.38753 -0.136871
0.550066 1.27655 -0.277859
0.507931 1.46678 -0.211671
0.370433 1.5446 -0.120396
0.578878 1.58644 -0.268569
0.472394 1.4423 -0.268555
0.527095 1.46218 -0.188259
0.367022 1.54799 -0.128508
0.562393 1.63544 -0.0902537
0.249656 1.37492 -0.313668
0.59831 1.13151 -0.0692557
0.42881 1.48229 -0.167534
0.406295 1.07636 -0.159333
0.511458 1.38875 -0.118422
0.399953 1.45895 -0.218331
0.579026 1.62608 -0.186818
0.545714 1.43773 -0.16394
0.382019 1.43029 -0.240373
0.648584 1.45897 0.0333626
0.576531 1.58582 -0.274026
0.300658 1.5051 -0.255315
0.297959 1.49577 -0.262969
0.604035 1.07067 -0.178429
0.599219 1.38457 0.09956
0.291882 1.47816 -0.273889
0.331512 1.54878 -0.198911
0.395777 1.36694 -0.251109
0.32749 1.54553 -0.205662
0.271492 1.48001 -0.322261
0.265061 1.4103 -0.295567
0.551418 1.41788 -0.151167
0.469374 1.42287 -0.455009
0.515596 1.3666 0.0896806
0.427142 1.61074 -0.116026
0.571076 1.58409 -0.284537
0.404784 1.46338 -0.21231
0.264526 1.37671 -0.269597
0.348802 1.12664 -0.359808
0.501461 1.38345 -0.41786
0.420796 1.63531 -0.302948
0.387014 1.44102 -0.234615
0.449862 1.64957 -0.263067
0.699519 1.36309 0.0232536
0.394322 1.48401 -0.168619
0.462312 1.05194 -0.202078
0.349217 1.35688 -0.233765
0.378416 1.1417 -0.0976635
0.351825 1.35706 -0.234395
0.454163 1.46446 -0.130928
0.369106 1.55618 -0.138429
0.417793 1.51955 -0.0633553
0.311917 1.23752 -0.420264
0.371476 1.36755 -0.251575
0.339083 1.35659 -0.234058
0.423919 1.26962 -0.190318
0.421927 1.27057 -0.193601
0.50874 1.4667 -0.210592
0.308489 1.19595 -0.232647
0.550466 1.27117 0.0564185
0.453639 1.04135 -0.241873
0.317477 1.18219 -0.211204
0.361794 1.59289 -0.224903
0.547393 1.16895 -0.33401
0.553534 1.16598 -0.325143
0.488215 1.09463 -0.324548
0.476722 1.2828 -0.192368
0.40629 1.28412 -0.215397
0.437534 1.26498 -0.171089
0.456497 1.2746 -0.142773
0.521017 1.07533 -0.276583
0.445525 1.26832 -0.155787
0.470992 1.44677 -0.113487
0.30762 1.26025 -0.426057
0.462156 1.45707 -0.122304
0.464593 1.27852 -0.130807
0.528737 1.29394 -0.201465
0.279757 1.38569 -0.438416
0.427714 1.26744 -0.185216
0.496441 1.37008 -0.0856913
0.527346 1.07109 -0.271742
0.379393 1.60494 -0.351434
0.497395 1.17242 -0.0105599
0.441249 1.50238 -0.0225518
0.472846 1.2874 -0.115564
0.390742 1.30958 -0.225952
0.464875 1.44022 0.0311304
0.465941 1.43086 0.0347531
0.487204 1.36355 0.0735393
0.382563 1.14453 -0.0901058
0.577753 1.58615 -0.271527
0.45578 1.47456 0.0125873
0.682744 1.21216 -0.208538
0.708888 1.44759 -0.149937
0.498254 1.36071 -0.0839657
0.561118 1.33772 0.0907635
0.272524 1.42415 -0.292107
0.559454 1.35928 0.0948474
0.538243 1.30384 -0.18981
0.380629 1.21202 -0.097913
0.386024 1.22281 -0.103511
0.708257 1.43877 -0.00774872
0.554341 1.28529 0.064629
0.711755 1.43121 -0.00406369
0.559396 1.36554 0.0948487
0.373391 1.18104 -0.0939244
0.555184 1.39322 0.108431
0.294746 1.48664 -0.268842
0.346882 1.58335 -0.242842
0.553328 1.40192 0.109299
0.361705 1.54914 -0.13363
0.404647 1.05621 -0.284975
0.431115 1.60739 -0.104988
0.54826 1.38011 -0.157201
0.727903 1.35495 -0.0874359
0.394292 1.09402 -0.119458
0.575442 1.16241 -0.311379
0.464775 1.28139 -0.176186
0.54338 1.30978 -0.183808
0.55081 1.42555 -0.155985
0.489511 1.32298 -0.0903718
0.418175 1.48232 -0.191535
0.648734 1.25004 0.0210842
0.366596 1.59578 -0.218965
0.401881 1.08547 -0.128625
0.357401 1.56714 -0.376794
0.611707 1.59532 -0.141796
0.405674 1.08167 -0.132968
0.619198 1.07573 -0.158232
0.409587 1.07974 -0.138167
0.559481 1.36625 -0.163331
0.542964 1.50351 -0.271766
0.437315 1.08899 -0.0837754
0.440918 1.09377 -0.0779946
0.253069 1.3852 -0.303545
0.368451 1.5456 -0.123009
0.372057 1.15232 -0.106258
0.375498 1.15255 -0.103056
0.480571 1.30563 -0.100931
0.589008 1.06775 -0.198393
0.503439 1.31564 -0.344892
0.719693 1.30189 -0.162151
0.373643 1.51616 -0.139257
0.482035 1.39319 -0.449276
0.427059 1.63875 -0.293761
0.487027 1.62273 -0.317437
0.70143 1.34104 -0.152438
0.326423 1.1712 -0.390737
0.381315 1.53822 -0.106762
0.719322 1.30968 -0.159962
0.559379 1.36791 -0.162668
0.623715 1.37228 -0.178944
0.536977 1.48703 -0.241014
0.713174 1.26632 -0.172801
0.49117 1.2784 -0.245947
0.411015 1.07916 -0.13921
0.372577 1.16902 -0.0945595
0.545766 1.07084 -0.250816
0.529961 1.64572 -0.252351
0.474716 1.29037 -0.112433
0.462151 1.37868 -0.0423817
0.384344 1.10731 -0.111669
0.584889 1.62093 -0.177706
0.488598 1.39173 -0.0954971
0.46911 1.04903 -0.209944
0.4706 1.04896 -0.211305
0.565508 1.16794 -0.317014
0.286573 1.39242 -0.411345
0.512303 1.52854 -0.39402
0.47441 1.04055 -0.233921
0.500834 1.17719 -0.00632049
0.472578 1.04007 -0.23027
0.324569 1.54292 -0.210806
0.332444 1.1616 -0.382981
0.382418 1.11026 -0.110474
0.542377 1.09069 -0.307589
0.579227 1.06838 -0.210512
0.564964 1.63963 -0.212588
0.609123 1.07202 -0.171749
0.621929 1.57519 -0.219247
0.614442 1.07355 -0.164709
0.439416 1.23188 0.0117679
0.537871 1.26714 -0.290694
0.351513 1.39478 -0.481461
0.446854 1.47093 -0.139789
0.454758 1.40631 -0.292684
0.507941 1.05485 -0.264216
0.506082 1.05325 -0.262383
0.620799 1.36199 -0.179401
0.41301 1.07926 -0.149929
0.385516 1.31993 -0.228215
0.413219 1.07667 -0.141734
0.421959 1.07049 -0.152662
0.392919 1.07702 -0.175135
0.397122 1.53032 -0.0881933
0.341434 1.55354 -0.184045
0.311953 1.55241 -0.27862
0.400274 1.0879 -0.127056
0.658399 1.38231 0.0411275
0.470725 1.65949 -0.229454
0.444893 1.09998 -0.0726234
0.704903 1.34044 -0.147205
0.360828 1.09619 -0.216105
0.379209 1.11841 -0.107281
0.37524 1.14161 -0.10415
0.375996 1.13104 -0.102203
0.375626 1.39592 -0.493975
0.386517 1.10353 -0.113422
0.346592 1.12664 -0.251644
0.322269 1.17507 -0.198893
0.417436 1.07288 -0.14642
0.380103 1.07685 -0.315502
0.44762 1.28659 0.0326117
0.333918 1.16393 -0.177458
0.550273 1.41596 0.105642
0.562102 1.06858 -0.232755
0.55168 1.40931 0.107459
0.556134 1.34342 -0.171209
0.510894 1.46475 -0.334267
0.279641 1.37377 -0.250567
0.306346 1.36513 -0.235734
0.370724 1.37353 -0.253835
0.490796 1.48272 -0.233391
0.721474 1.35178 -0.124063
0.251625 1.37553 -0.306578
0.273027 1.21883 -0.336635
0.643433 1.48954 0.0200592
0.461162 1.45872 0.0231825
0.496269 1.05448 -0.198571
0.435047 1.26423 -0.17593
0.522778 1.65599 -0.226703
0.558234 1.20732 -0.315993
0.5855 1.36476 -0.185746
0.292366 1.31971 -0.438697
0.642999 1.4921 0.0184596
0.6463 1.47289 0.026976
0.470618 1.38149 -0.45182
0.39565 1.23176 -0.11029
0.481719 1.46687 -0.439392
0.39793 1.45669 -0.221873
0.561365 1.32734 0.0860781
0.260967 1.2823 -0.360709
0.308772 1.52228 -0.239658
0.450232 1.37142 -0.299103
0.57523 1.58545 -0.276046
0.259849 1.40089 -0.298302
0.732297 1.35639 -0.0680325
0.574045 1.58508 -0.278213
0.371311 1.3844 -0.252978
0.479626 1.56157 0.00436856
0.625765 1.39894 -0.178216
0.472168 1.39295 -0.455339
0.362781 1.5573 -0.148638
0.375822 1.60115 -0.354948
0.561135 1.33399 0.0892964
0.536275 1.64465 -0.127749
0.420317 1.6146 -0.13725
0.370042 1.59217 -0.361308
0.546037 1.6409 -0.113614
0.55759 1.37214 0.0947754
0.499679 1.37143 -0.367605
0.396409 1.45507 -0.223949
0.463225 1.33572 -0.29079
0.50154 1.20524 -0.385975
0.293533 1.4825 -0.271464
0.393299 1.30504 -0.225009
0.433721 1.37798 -0.268236
0.65306 1.27098 0.0252764
0.471193 1.3717 -0.313333
0.475947 1.37105 -0.320003
0.489745 1.46609 -0.24109
0.486794 1.04938 -0.205659
0.550349 1.07071 -0.24554
0.563423 1.13837 -0.325414
0.450162 1.37574 -0.298492
0.435764 1.04608 -0.258962
0.437012 1.04608 -0.258053
0.391211 1.06645 -0.301327
0.500219 1.04746 -0.256001
0.559505 1.63673 -0.094559
0.483215 1.04129 -0.241638
0.565891 1.58055 -0.29626
0.247574 1.34921 -0.369036
0.489584 1.38728 -0.0941082
0.380466 1.1425 -0.0933639
0.393267 1.53233 -0.0929033
0.566805 1.16801 -0.315574
0.506004 1.28218 -0.226601
0.491521 1.27836 -0.244646
0.432462 1.04602 -0.261312
0.400159 1.07534 -0.166147
0.43022 1.04632 -0.262997
0.497914 1.65602 -0.211151
0.295887 1.41607 -0.430048
0.541008 1.07173 -0.256082
0.264541 1.30539 -0.318695
0.703308 1.20725 -0.0445686
0.367534 1.09251 -0.332815
0.393271 1.0646 -0.298627
0.450211 1.37384 -0.298669
0.357624 1.10831 -0.346909
0.48497 1.29349 -0.263581
0.447973 1.29547 0.0342473
0.400231 1.05929 -0.289999
0.442221 1.24047 0.0163322
0.347084 1.13074 -0.362483
0.367112 1.5874 -0.364561
0.465244 1.04604 -0.230408
0.682988 1.49356 -0.0399772
0.379562 1.20704 -0.0975216
0.379831 1.44103 -0.474264
0.406088 1.16725 -0.0566541
0.364624 1.09861 -0.337778
0.514447 1.65143 -0.164107
0.427308 1.4754 -0.198592
0.642585 1.55862 -0.20081
0.487707 1.28383 -0.255244
0.485643 1.65383 -0.212365
0.47301 1.28646 -0.431773
0.558419 1.644 -0.224241
0.506978 1.41183 -0.362102
0.45424 1.35625 -0.297825
0.700247 1.34501 -0.149142
0.343603 1.14116 -0.368252
0.604461 1.60214 -0.150891
0.490387 1.35319 -0.357613
0.530615 1.17456 -0.353811
0.516822 1.38887 -0.124468
0.311392 1.52629 -0.235162
0.258587 1.39068 -0.382978
0.534441 1.45625 -0.179118
0.469631 1.35645 -0.448214
0.46951 1.36758 -0.44935
0.2646 1.45944 -0.333289
0.364949 1.28155 -0.477211
0.450419 1.37003 -0.294138
0.505326 1.65747 -0.217352
0.377342 1.43269 -0.47911
0.450242 1.36931 -0.29947
0.348998 1.33631 -0.502105
0.70608 1.33905 -0.148043
0.425706 1.26856 -0.187587
0.318639 1.18954 -0.403901
0.524668 1.21381 0.0206073
0.567227 1.27974 -0.259959
0.340588 1.39521 -0.478537
0.53598 1.26711 -0.296602
0.533347 1.27362 -0.284706
0.288646 1.35589 -0.44262
0.289509 1.33692 -0.44175
0.463282 1.04666 -0.23309
0.301784 1.44488 -0.426572
0.711784 1.23462 -0.035515
0.555516 1.29044 0.0675899
0.499037 1.32319 -0.349134
0.48877 1.36985 -0.358186
0.290822 1.35299 -0.443603
0.414561 1.24991 -0.125423
0.455533 1.04099 -0.239492
0.590532 1.54694 -0.262668
0.289509 1.34677 -0.443053
0.379913 1.24895 -0.457164
0.289289 1.34173 -0.442393
0.555037 1.22681 -0.310717
0.253072 1.39419 -0.3678
0.251876 1.40047 -0.363069
0.289632 1.33888 -0.441656
0.261502 1.40413 -0.297242
0.653067 1.405 0.0471014
0.260233 1.37844 -0.276101
0.498467 1.63217 -0.298728
0.293099 1.35622 -0.443297
0.255151 1.3896 -0.377235
0.462417 1.37221 -0.305571
0.369937 1.57122 -0.126319
0.24755 1.37133 -0.370283
0.424231 1.07227 -0.106812
0.247983 1.37669 -0.370426
0.250274 1.33176 -0.367537
0.676818 1.20622 -0.214163
0.372824 1.543 -0.116628
0.498842 1.38098 -0.359359
0.289715 1.32824 -0.440759
0.29031 1.32502 -0.440144
0.520215 1.47565 -0.229341
0.291674 1.32176 -0.439208
0.469974 1.37085 -0.450165
0.383929 1.39582 -0.494713
0.726209 1.38381 0.00120495
0.657577 1.38523 0.04239
0.449165 1.37977 -0.29866
0.495708 1.08962 -0.314974
0.333749 1.15867 -0.381162
0.554482 1.57117 -0.320762
0.350288 1.55191 -0.384468
0.433672 1.40008 -0.487814
0.559441 1.36182 0.0952417
0.505062 1.19993 -0.382776
0.540733 1.3067 -0.186834
0.466624 1.41245 -0.455234
0.294404 1.30858 -0.437717
0.438929 1.47772 -0.152164
0.252153 1.3822 -0.304517
0.248812 1.3763 -0.312845
0.653756 1.39923 0.047646
0.340308 1.14748 -0.372735
0.314273 1.21206 -0.41397
0.282034 1.44832 -0.285787
0.293034 1.31305 -0.438253
0.258396 1.32676 -0.321842
0.30679 1.26399 -0.426953
0.409349 1.46816 -0.205702
0.250648 1.35785 -0.318366
0.479089 1.25816 -0.417519
0.559107 1.16865 -0.322009
0.424256 1.04979 -0.26839
0.637727 1.51714 0.00660964
0.297626 1.39058 -0.419994
0.488512 1.28055 -0.251794
0.654288 1.18611 -0.239441
0.551766 1.56894 -0.326694
0.387165 1.06999 -0.306471
0.30966 1.24967 -0.423767
0.473522 1.04862 -0.220325
0.478344 1.04821 -0.214546
0.300163 1.43982 -0.427524
0.464878 1.33326 -0.289299
0.446874 1.2707 0.0293505
0.489075 1.27973 -0.250265
0.391772 1.09552 -0.118553
0.561146 1.34032 0.0916605
0.349722 1.12309 -0.247058
0.538567 1.38524 -0.147287
0.452023 1.04221 -0.244894
0.43704 1.60205 -0.0880607
0.261268 1.27201 -0.357844
0.457028 1.64414 -0.188087
0.431271 1.26595 -0.180316
0.448865 1.04294 -0.247625
0.376128 1.41201 -0.24571
0.418378 1.63399 -0.306561
0.43892 1.04609 -0.2566
0.531363 1.06984 -0.267823
0.456508 1.12219 -0.365345
0.606478 1.14848 -0.0564067
0.266063 1.41237 -0.294999
0.245324 1.38373 -0.319132
0.554822 1.11382 -0.31954
0.531932 1.07716 -0.16572
0.581463 1.1621 -0.307105
0.577708 1.16221 -0.30965
0.420505 1.37467 -0.260251
0.55491 1.33643 -0.172093
0.482402 1.04837 -0.211654
0.465612 1.04588 -0.22997
0.659664 1.19032 -0.233302
0.491414 1.38983 -0.438454
0.373743 1.41299 -0.485364
0.470587 1.37835 -0.45151
0.479225 1.30206 -0.103334
0.497036 1.38695 -0.429496
0.312051 1.2308 -0.419335
0.541323 1.08045 -0.154198
0.718116 1.33264 -0.0245476
0.466463 1.04565 -0.228182
0.402479 1.0579 -0.287465
0.388767 1.6153 -0.341343
0.467377 1.43629 -0.275274
0.476174 1.31319 -0.277442
0.430687 1.51184 -0.0445039
0.49052 1.28204 -0.211333
0.524525 1.29095 -0.207842
0.649459 1.45115 0.0371158
0.574697 1.62768 -0.251117
0.47447 1.04864 -0.219036
0.597804 1.60981 -0.160165
0.496458 1.32755 -0.351099
0.559007 1.08646 -0.123323
0.724119 1.35487 -0.108067
0.462236 1.27672 -0.134402
0.602112 1.2983 -0.223587
0.475401 1.60775 -0.336447
0.395888 1.07612 -0.171613
0.487034 1.39137 -0.443327
0.650883 1.54802 -0.0893083
0.46281 1.39878 -0.453891
0.552937 1.32947 -0.17373
0.619296 1.43249 -0.188747
0.374578 1.41955 -0.483802
0.515687 1.06677 -0.181887
0.357426 1.55709 -0.157257
0.602828 1.59768 -0.0375938
0.559108 1.06937 -0.235598
0.55481 1.07045 -0.24061
0.469376 1.32429 -0.442678
0.651753 1.42532 0.0437529
0.300357 1.28826 -0.432503
0.520802 1.06969 -0.17668
0.571812 1.0946 -0.105704
0.510419 1.46705 -0.213954
0.689945 1.36423 0.0318014
0.69732 1.36339 0.0258522
0.422504 1.19076 -0.0238089
0.688085 1.15908 -0.0646306
0.337805 1.55218 -0.18864
0.461827 1.04601 -0.233613
0.416837 1.47924 -0.195404
0.278026 1.4364 -0.289071
0.429726 1.07854 -0.0971467
0.547258 1.08144 -0.144386
0.544434 1.081 -0.149143
0.467914 1.28145 -0.124376
0.289348 1.33076 -0.441255
0.335658 1.57635 -0.254479
0.418662 1.48232 -0.189726
0.417278 1.18268 -0.0330821
0.556866 1.34641 -0.169107
0.567338 1.63505 -0.249051
0.263179 1.4071 -0.296406
0.440827 1.26512 -0.165246
0.558818 1.57469 -0.311634
0.555877 1.08446 -0.128442
0.699288 1.23291 -0.193045
0.694304 1.22579 -0.197936
0.361568 1.54946 -0.132613
0.373366 1.17718 -0.0944886
0.373144 1.17276 -0.0947983
0.388015 1.31437 -0.227293
0.662359 1.33567 0.0393918
0.512721 1.65845 -0.220893
0.37014 1.15328 -0.110288
0.613654 1.30962 -0.20629
0.664084 1.53654 -0.186489
0.481366 1.04915 -0.212785
0.440812 1.59848 -0.0722324
0.433755 1.21388 -0.00143263
0.508984 1.47237 -0.216211
0.652716 1.34308 -0.187646
0.706835 1.21799 -0.0405333
0.709267 1.22628 -0.0379854
0.635092 1.20688 0.00107621
0.585846 1.58669 -0.258109
0.456234 1.36859 0.0062126
0.439145 1.60022 -0.0776833
0.432154 1.6064 -0.101987
0.436172 1.26475 -0.17352
0.543693 1.44726 0.095051
0.679829 1.36614 0.037616
0.71102 1.25752 -0.178159
0.484327 1.42589 -0.102639
0.327167 1.16966 -0.188743
0.407205 1.39909 -0.495245
0.546514 1.43258 0.101987
0.652531 1.41063 0.0466048
0.639058 1.51179 0.00960308
0.656159 1.28539 0.0279777
0.273545 1.27734 -0.307474
0.435141 1.08611 -0.0883866
0.401457 1.39913 -0.497874
0.477493 1.37096 -0.324414
0.313901 1.22158 -0.416288
0.387438 1.48947 -0.161704
0.552911 1.28046 0.0623984
0.488802 1.39866 -0.097467
0.622554 1.34232 -0.190637
0.665672 1.52505 -0.0668499
0.482251 1.24727 -0.411184
0.487994 1.31974 -0.0920654
0.487948 1.3725 -0.358018
0.429633 1.20562 -0.00866544
0.574641 1.09801 -0.101576
0.371164 1.1528 -0.109114
0.444816 1.04552 -0.252018
0.32312 1.1771 -0.395594
0.450432 1.37051 -0.294693
0.258873 1.30776 -0.365755
0.652656 1.40801 0.0470475
0.61531 1.31257 -0.203138
0.590153 1.11575 -0.084769
0.497427 1.36475 -0.0846788
0.464107 1.3804 -0.0497613
0.410484 1.24606 -0.121653
0.519754 1.28739 -0.212448
0.621994 1.3313 -0.191918
0.634781 1.52932 0.00134134
0.473547 1.56825 -0.00464021
0.623021 1.07725 -0.152984
0.617469 1.31603 -0.199164
0.678001 1.13502 -0.0784112
0.371576 1.38923 -0.252778
0.512944 1.47125 -0.328053
0.43346 1.26478 -0.141333
0.485425 1.23767 -0.405516
0.675394 1.13007 -0.0820444
0.602953 1.46993 -0.208764
0.479972 1.37105 -0.330595
0.536862 1.47158 0.0826083
0.647374 1.46565 0.0310936
0.372219 1.35921 -0.251659
0.455316 1.39878 -0.475965
0.519502 1.48446 -0.312734
0.653768 1.38562 0.0489892
0.416542 1.52054 -0.425026
0.619903 1.35845 -0.179214
0.446086 1.05699 -0.182398
0.458878 1.58192 -0.0289834
0.30236 1.5085 -0.252815
0.465759 1.40989 -0.45474
0.508647 1.28279 -0.22411
0.286396 1.46046 -0.282202
0.654111 1.38795 0.0478539
0.249367 1.38734 -0.363956
0.4372 1.47878 -0.154883
0.703971 1.39 -0.139632
0.701931 1.36247 0.0200677
0.653834 1.39735 0.0473443
0.468559 1.35759 0.0425005
0.467472 1.4217 0.0373371
0.281175 1.38574 -0.438546
0.654016 1.39577 0.0476813
0.451951 1.36481 -0.298698
0.316803 1.47753 -0.416915
0.64734 1.34411 -0.187415
0.299499 1.29174 -0.433293
0.559487 1.35428 -0.16493
0.449168 1.38084 -0.298464
0.439511 1.64474 -0.276584
0.456841 1.58357 -0.0332086
0.495215 1.47982 -0.230455
0.341119 1.52383 -0.396163
0.461527 1.27568 -0.136005
0.472146 1.36345 0.0586616
0.505234 1.38265 -0.408386
0.477668 1.43725 -0.107065
0.378266 1.07885 -0.317867
0.448298 1.39092 -0.29451
0.623972 1.41139 -0.181127
0.37178 1.40399 -0.48891
0.467738 1.35856 0.0419253
0.673997 1.50904 -0.0536406
0.530048 1.48848 0.0728968
0.46307 1.4491 0.0277441
0.534568 1.37069 0.0944325
0.36857 1.55676 -0.139985
0.439085 1.26492 -0.168529
0.3777 1.19857 -0.0964881
0.599687 1.60213 -0.0418408
0.252603 1.40445 -0.360716
0.424417 1.37587 -0.262678
0.369181 1.53082 -0.133158
0.473671 1.44017 -0.450383
0.390459 1.4742 -0.459062
0.474426 1.44278 -0.110295
0.484592 1.31271 -0.0960127
0.389336 1.53447 -0.0977371
0.686046 1.36508 0.0333305
0.577466 1.52107 -0.261253
0.460139 1.27531 -0.137921
0.369099 1.55615 -0.13752
0.377188 1.1265 -0.103592
0.565021 1.08987 -0.114018
0.703749 1.24196 -0.186648
0.391233 1.44772 -0.229761
0.478741 1.29959 -0.104938
0.623571 1.1815 -0.0188187
0.730172 1.35675 -0.0773019
0.469413 1.1343 -0.0399994
0.465977 1.37195 -0.307459
0.56851 1.09263 -0.109146
0.473855 1.38406 -0.071924
0.465019 1.05157 -0.204798
0.631615 1.53926 -0.0035763
0.407493 1.28263 -0.213773
0.475261 1.04111 -0.235399
0.706519 1.40165 -0.141537
0.64366 1.48803 0.0210224
0.476495 1.4828 -0.229238
0.626117 1.39281 -0.178943
0.291644 1.1905 -0.319066
0.333532 1.1455 -0.271283
0.564429 1.57951 -0.298691
0.513573 1.47277 -0.224438
0.432646 1.63787 -0.171639
0.536562 1.07109 -0.261462
0.509047 1.45794 -0.339477
0.370933 1.39863 -0.489525
0.657373 1.54365 -0.190144
0.501337 1.0499 -0.257755
0.546604 1.49246 -0.247145
0.466959 1.57438 -0.014809
0.577226 1.10002 -0.099842
0.319616 1.48229 -0.415167
0.661433 1.35325 0.0398072
0.456039 1.3714 -0.301922
0.704667 1.44742 -0.0118999
0.552904 1.5047 -0.257663
0.619145 1.58792 -0.132322
0.495327 1.47907 -0.229589
0.629447 1.54599 -0.00573937
0.495443 1.49791 -0.422141
0.301959 1.36795 -0.237579
0.645419 1.47897 0.0248433
0.443584 1.56338 -0.38619
0.315443 1.38616 -0.433975
0.462357 1.42725 -0.283279
0.385933 1.61189 -0.188638
0.582936 1.10591 -0.0945067
0.475038 1.64827 -0.199569
0.580401 1.62018 -0.253146
0.543261 1.38459 -0.151265
0.603251 1.58802 -0.242109
0.561477 1.64181 -0.218684
0.643325 1.17857 -0.251775
0.498699 1.28249 -0.234335
0.285766 1.24393 -0.283946
0.495731 1.65425 -0.196067
0.650608 1.43773 0.0400744
0.4938 1.65325 -0.199863
0.293176 1.35724 -0.443744
0.647988 1.46203 0.0321657
0.385487 1.43849 -0.236227
0.630462 1.19642 -0.00692958
0.472582 1.64725 -0.198135
0.549507 1.64018 -0.108763
0.485052 1.55625 0.0134893
0.518027 1.4821 -0.315903
0.565027 1.06768 -0.229457
0.477099 1.45374 -0.444808
0.579014 1.38059 0.100579
0.382488 1.60834 -0.348313
0.651927 1.26386 0.0252517
0.588925 1.38272 0.100691
0.395431 1.09304 -0.120592
0.505094 1.38869 -0.110679
0.594755 1.1245 -0.0756097
0.464616 1.40407 -0.45461
0.691379 1.33649 -0.181257
0.46932 1.6468 -0.19616
0.611487 1.58428 -0.0270864
0.547754 1.56598 -0.335662
0.586897 1.53674 -0.264209
0.479646 1.36412 0.0669329
0.558891 1.36975 -0.163084
0.477614 1.38578 -0.0780964
0.285305 1.45619 -0.283992
0.548964 1.38776 -0.15514
0.515862 1.65731 -0.222498
0.484258 1.04817 -0.208979
0.558259 1.37585 -0.165667
0.660633 1.31481 0.034089
0.527664 1.21959 0.0236283
0.254777 1.39177 -0.301008
0.378615 1.12056 -0.105942
0.659872 1.30742 0.032755
0.573833 1.63173 -0.196103
0.545892 1.31408 -0.181121
0.522471 1.54317 -0.376849
0.370639 1.52674 -0.134666
0.471734 1.38694 -0.453577
0.437559 1.50654 -0.0316101
0.246946 1.35772 -0.369609
0.331206 1.57241 -0.25926
0.452517 1.04251 -0.244005
0.528556 1.07485 -0.168817
0.319361 1.53759 -0.220321
0.720145 1.3494 -0.131966
0.482186 1.61621 -0.32569
0.494613 1.38816 -0.101509
0.304162 1.20327 -0.242264
0.71387 1.25795 -0.0321112
0.371284 1.40151 -0.489372
0.471541 1.04812 -0.222725
0.703319 1.38276 -0.139285
0.370494 1.39729 -0.489182
0.549115 1.32138 -0.178195
0.363939 1.40099 -0.488041
0.72034 1.40948 0.00219199
0.290966 1.37092 -0.243142
0.32949 1.35805 -0.234226
0.485011 1.04194 -0.242914
0.439584 1.37999 -0.273923
0.57424 1.62649 -0.0744644
0.255633 1.41315 -0.355497
0.675062 1.52136 -0.179365
0.459052 1.65286 -0.249166
0.414169 1.39968 -0.493427
0.39647 1.48426 -0.45116
0.538936 1.64391 -0.241074
0.307905 1.17173 -0.302141
0.458466 1.46668 0.0182921
0.559508 1.63816 -0.247916
0.515309 1.47761 -0.321431
0.630919 1.17196 -0.264342
0.354314 1.31519 -0.492912
0.510859 1.65846 -0.219766
0.602544 1.16313 -0.288703
0.431763 1.54321 -0.403164
0.670079 1.51557 -0.059683
0.340855 1.58067 -0.248505
0.515183 1.07782 -0.286627
0.476077 1.26729 -0.422148
0.346305 1.35717 -0.233567
0.305988 1.27131 -0.427748
0.416942 1.17898 -0.410818
0.460433 1.33967 -0.293003
0.651813 1.42196 0.0445256
0.362768 1.10155 -0.340419
0.543065 1.64238 -0.117837
0.393389 1.61674 -0.175391
0.427814 1.19995 -0.0143334
0.313718 1.16721 -0.296573
0.507009 1.47195 -0.219853
0.474199 1.27653 -0.426826
0.317334 1.55821 -0.273538
0.529992 1.65427 -0.231973
0.467355 1.05142 -0.206972
0.533251 1.29775 -0.196209
0.530028 1.22361 0.0252522
0.364473 1.55718 -0.146802
0.660949 1.36465 0.04023
0.461432 1.36321 0.0356434
0.501491 1.31899 -0.346965
0.264543 1.25035 -0.349682
0.260944 1.44639 -0.340353
0.2744 1.42781 -0.29121
0.619225 1.17189 -0.0277655
0.460228 1.04544 -0.233462
0.50299 1.38358 -0.413888
0.360474 1.14703 -0.133118
0.270638 1.41973 -0.29334
0.723831 1.39576 0.00269662
0.511838 1.47152 -0.22294
0.609139 1.46019 -0.201707
0.369079 1.56643 -0.126602
0.452879 1.35945 -0.298764
0.252142 1.3274 -0.367544
0.295976 1.30266 -0.436306
0.68562 1.15142 -0.068214
0.420328 1.48258 -0.18436
0.551084 1.32506 -0.175915
0.548818 1.50472 -0.263332
0.443646 1.38196 -0.280309
0.402673 1.49581 -0.443227
0.348085 1.55577 -0.171563
0.523152 1.29235 -0.326843
0.469984 1.43892 -0.271849
0.422731 1.3754 -0.261764
0.373471 1.40053 -0.249199
0.503339 1.39734 -0.362542
0.708006 1.36154 0.0121906
0.434787 1.48019 -0.158345
0.507237 1.4166 -0.361889
0.391226 1.5334 -0.0953126
0.371972 1.08632 -0.326286
0.560556 1.19237 -0.320548
0.371588 1.5994 -0.212477
0.559571 1.36364 -0.16388
0.457114 1.04154 -0.237966
0.557646 1.3748 -0.165024
0.377437 1.54031 -0.111152
0.344238 1.13152 -0.256367
0.377433 1.08425 -0.193124
0.506846 1.46704 -0.213177
0.507547 1.44525 -0.348789
0.701643 1.36605 -0.140985
0.695555 1.46594 -0.0230355
0.303624 1.27795 -0.429526
0.384008 1.08022 -0.185236
0.515603 1.46384 -0.203523
0.525906 1.46293 -0.18975
0.359305 1.55721 -0.153852
0.351722 1.58685 -0.236872
0.516909 1.18453 -0.369222
0.426976 1.48412 -0.172009
0.411467 1.05358 -0.278421
0.653367 1.40239 0.0469582
0.376414 1.50834 -0.145208
0.393276 1.61833 -0.336712
0.321935 1.54031 -0.215847
0.543013 1.25101 0.0447693
0.369717 1.1528 -0.110409
0.246212 1.38579 -0.349192
0.542598 1.44501 -0.168121
0.403402 1.4621 -0.214371
0.370194 1.08819 -0.201212
0.276695 1.43242 -0.290119
0.459333 1.37675 -0.0334788
0.541603 1.4463 -0.169746
0.694251 1.17531 -0.0562645
0.271279 1.22519 -0.339385
0.605887 1.46581 -0.205886
0.530657 1.29537 -0.198906
0.388844 1.61508 -0.182029
0.475504 1.04857 -0.218107
0.290052 1.35123 -0.443748
0.424982 1.25733 -0.133342
0.55181 1.27633 0.0602232
0.469864 1.40262 0.0416069
0.514394 1.65793 -0.221775
0.35037 1.55635 -0.167845
0.395272 1.53137 -0.0907418
0.25093 1.38839 -0.371025
0.434879 1.6041 -0.0929163
0.713937 1.24679 -0.0330951
0.495823 1.36512 0.0811643
0.561226 1.12528 -0.323085
0.508964 1.65188 -0.174848
0.46383 1.40204 -0.454378
0.522972 1.07071 -0.174607
0.733558 1.35567 -0.0510311
0.415985 1.61792 -0.145522
0.503986 1.18166 -0.00244585
0.345627 1.53975 -0.389959
0.414475 1.61691 -0.150453
0.368868 1.5564 -0.139148
0.42772 1.63474 -0.167903
0.503493 1.28211 -0.229313
0.513541 1.47371 -0.325711
0.602044 1.139 -0.0637501
0.361556 1.57765 -0.370966
0.406328 1.46511 -0.210028
0.443003 1.59592 -0.0668221
0.379569 1.5392 -0.108941
0.34273 1.14422 -0.369694
0.445136 1.47263 -0.142483
0.280896 1.44499 -0.286748
0.719285 1.34111 -0.0229847
0.426713 1.51465 -0.0515297
0.489227 1.35789 -0.357996
0.243919 1.38456 -0.335008
0.583749 1.06808 -0.204889
0.418757 1.61529 -0.142427
0.532707 1.48418 -0.237753
0.409298 1.28016 -0.211466
0.311816 1.23433 -0.420183
0.249492 1.36729 -0.316171
0.534167 1.55555 -0.359479
0.391956 1.15716 -0.0780146
0.50356 1.05139 -0.259864
0.370787 1.3805 -0.253678
0.476815 1.29591 -0.107775
0.445247 1.59318 -0.0617236
0.397209 1.09231 -0.1224
0.559991 1.37743 -0.168414
0.700802 1.34816 -0.147502
0.302648 1.28058 -0.4303
0.451453 1.36678 -0.298834
0.703082 1.37767 -0.139517
0.548878 1.38974 -0.155212
0.423059 1.51697 -0.0575699
0.314366 1.21521 -0.414855
0.504026 1.63607 -0.290201
0.251771 1.35138 -0.319532
0.486276 1.42264 -0.101927
0.519171 1.07679 -0.28005
0.709254 1.42758 -0.145016
0.651839 1.41921 0.044937
0.485357 1.29039 -0.260927
0.651874 1.42323 0.0443302
0.382244 1.1435 -0.0902688
0.516674 1.47979 -0.318807
0.471655 1.48285 -0.226758
0.405465 1.28511 -0.216399
0.506916 1.65774 -0.218389
0.446702 1.64845 -0.266879
0.523761 1.38817 -0.130778
0.279214 1.38361 -0.437137
0.688384 1.21966 -0.202082
0.359746 1.57272 -0.373629
0.53662 1.55755 -0.355133
0.257003 1.33372 -0.321891
0.374961 1.13562 -0.100747
0.399562 1.36815 -0.252511
0.469531 1.35825 0.0425514
0.370598 1.37716 -0.254071
0.470263 1.36073 0.0423456
0.516026 1.30081 -0.333921
0.544906 1.25582 0.0472105
0.533702 1.47991 0.0777615
0.476871 1.04849 -0.216473
0.298735 1.2946 -0.433874
0.367797 1.55692 -0.141681
0.478231 1.14685 -0.0293012
0.287973 1.19504 -0.322585
0.465917 1.12968 -0.0437739
0.248908 1.34412 -0.368826
0.480946 1.45438 -0.255718
0.282079 1.25218 -0.290627
0.54554 1.38426 -0.152214
0.523065 1.50253 0.0644432
0.424636 1.16616 -0.402286
0.45734 1.05382 -0.196158
0.450263 1.46922 -0.136487
0.498946 1.3572 -0.0831469
0.297189 1.36952 -0.240552
0.447391 1.38815 -0.294638
0.459228 1.27914 -0.168376
0.37218 1.52035 -0.136997
0.465819 1.45286 -0.1181
0.398347 1.29648 -0.222336
0.594747 1.56109 -0.261992
0.456165 1.35032 -0.296531
0.701693 1.19992 -0.046748
0.520753 1.18098 -0.363992
0.43329 1.60547 -0.0976434
0.556668 1.2777 -0.271168
0.419653 1.4822 -0.186154
0.347841 1.34637 -0.503941
0.66652 1.36765 0.0431694
0.615516 1.58014 -0.226986
0.536435 1.23569 0.0340174
0.621287 1.17662 -0.0232413
0.512525 1.18914 -0.373594
0.389547 1.09851 -0.116663
0.424516 1.48483 -0.177141
0.308032 1.38829 -0.427671
0.719855 1.34657 -0.135173
0.404274 1.24043 -0.116831
0.390433 1.60722 -0.140566
0.283682 1.2004 -0.326368
0.271421 1.28479 -0.311395
0.589027 1.60716 -0.257402
0.476428 1.56511 -0.000339218
0.493715 1.38842 -0.434298
0.474393 1.14131 -0.034959
0.589465 1.58702 -0.253599
0.399336 1.2361 -0.113103
0.433777 1.26435 -0.177975
0.456638 1.37275 -0.0121724
0.432629 1.08239 -0.0929324
0.292767 1.31641 -0.438394
0.454187 1.40113 -0.293291
0.424532 1.06913 -0.155634
0.733116 1.35589 -0.0615537
0.363216 1.54865 -0.130309
0.646699 1.23938 0.0184624
0.596524 1.47925 -0.215478
0.358804 1.10138 -0.222734
0.550002 1.40731 -0.149945
0.550269 1.40887 -0.149984
0.383715 1.43473 -0.237973
0.262597 1.31206 -0.320114
0.616801 1.5738 -0.0204511
0.370313 1.39609 -0.488902
0.467984 1.41897 -0.455118
0.625112 1.37867 -0.179089
0.538769 1.24045 0.0379488
0.608818 1.58824 -0.0302856
0.310396 1.36331 -0.235157
0.479957 1.04876 -0.213085
0.5047 1.36565 0.0856707
0.639916 1.56302 -0.104681
0.399337 1.52919 -0.0856591
0.585934 1.11107 -0.0886502
0.647862 1.09378 -0.118918
0.667999 1.53218 -0.184512
0.580244 1.10442 -0.0956858
0.425379 1.61231 -0.120414
0.40458 1.28632 -0.217652
0.622549 1.41878 -0.182683
0.351392 1.12043 -0.355804
0.657614 1.29316 0.029298
0.31294 1.22727 -0.418139
0.482824 1.30938 -0.0982163
0.489801 1.40411 -0.0983954
0.628407 1.19207 -0.0104247
0.457214 1.58204 -0.364787
0.559962 1.35683 -0.163436
0.654081 1.38931 0.0479998
0.488103 1.48283 -0.431208
0.355778 1.14974 -0.141793
0.495617 1.33652 -0.0846787
0.434351 1.5091 -0.0376637
0.350226 1.12337 -0.357602
0.72262 1.35453 -0.112148
0.568544 1.58247 -0.291029
0.470922 1.28369 -0.1204
0.450418 1.57322 -0.375804
0.599948 1.13373 -0.0682434
0.463873 1.57728 -0.0198985
0.628545 1.0796 -0.145375
0.585923 1.61795 -0.059179
0.336793 1.14014 -0.265836
0.257383 1.4403 -0.344343
0.387116 1.15511 -0.0854643
0.364452 1.14477 -0.124778
0.489052 1.55232 0.0188167
0.296385 1.49145 -0.266053
0.343269 1.35696 -0.233639
0.506116 1.4063 -0.362921
0.304303 1.54167 -0.286646
0.512255 1.07938 -0.291532
0.407979 1.07679 -0.157211
0.588346 1.11462 -0.0854449
0.341757 1.52942 -0.394541
0.450878 1.10882 -0.0637698
0.436865 1.26851 -0.14496
0.438134 1.601 -0.0825533
0.426706 1.06684 -0.158519
0.636742 1.56232 -0.203753
0.519144 1.29651 -0.330699
0.482953 1.37082 -0.334164
0.511883 1.46795 -0.331307
0.394429 1.07664 -0.17338
0.612797 1.16036 -0.0439008
0.259649 1.28811 -0.362462
0.331594 1.39493 -0.474035
0.445014 1.25973 0.0257833
0.448146 1.10495 -0.0679417
0.375637 1.42596 -0.482181
0.490921 1.05341 -0.201417
0.345903 1.15431 -0.155693
0.44399 1.25037 0.0217904
0.457072 1.36721 0.0178231
0.597508 1.16254 -0.293281
0.256883 1.31154 -0.366109
0.636394 1.52287 0.00406517
0.531868 1.2809 -0.313451
0.383573 1.45127 -0.467512
0.251962 1.37731 -0.30605
0.514895 1.51699 0.0532941
0.412851 1.08004 -0.150986
0.472673 1.44498 -0.111964
0.456147 1.46213 -0.12805
0.469617 1.33393 -0.444793
0.379672 1.08274 -0.190477
0.365917 1.09593 -0.335587
0.442126 1.26506 -0.16361
0.508156 1.0819 -0.297601
0.714847 1.36112 -0.0024269
0.319292 1.18666 -0.40211
0.368037 1.14336 -0.118144
0.556817 1.16436 -0.324206
0.72469 1.35513 -0.101627
0.502132 1.39328 -0.362095
0.324986 1.39488 -0.469895
0.705279 1.39713 -0.140794
0.493716 1.16734 -0.0147135
0.549034 1.26614 0.0521373
0.525689 1.17803 -0.360221
0.439279 1.06016 -0.173961
0.295053 1.30624 -0.437211
0.488035 1.28176 -0.253644
0.493231 1.37644 -0.0875227
0.454713 1.05425 -0.192959
0.532857 1.3869 -0.141103
0.557421 1.11854 -0.320788
0.329065 1.16765 -0.387349
0.321511 1.18121 -0.398382
0.525544 1.28905 -0.323597
0.380905 1.11339 -0.109429
0.440165 1.14296 -0.384652
0.318185 1.1632 -0.291682
0.50329 1.37263 -0.379242
0.458934 1.36516 0.0288282
0.658503 1.37998 0.040401
0.436071 1.06214 -0.169511
0.47058 1.36732 0.0437249
0.295145 1.18492 -0.314747
0.452227 1.46699 -0.134041
0.655281 1.38791 0.0433796
0.275878 1.21346 -0.333948
0.375006 1.58673 -0.129467
0.253032 1.34595 -0.32044
0.36255 1.5483 -0.131189
0.526387 1.64715 -0.257918
0.487797 1.41854 -0.100858
0.511023 1.28294 -0.221442
0.4298 1.26039 -0.137812
0.447475 1.38681 -0.294101
0.389073 1.44474 -0.232265
0.252797 1.37939 -0.291439
0.632688 1.20133 -0.00311996
0.384695 1.23782 -0.450979
0.310588 1.24641 -0.422821
0.448297 1.13252 -0.374852
0.604411 1.30073 -0.220782
0.51354 1.06407 -0.18311
0.436341 1.4793 -0.156235
0.37267 1.08713 -0.198478
0.357969 1.10346 -0.225424
0.366401 1.09152 -0.20711
0.464209 1.45515 -0.120052
0.41464 1.61735 -0.149756
0.517104 1.28565 -0.215369
0.331482 1.16346 -0.384148
0.469739 1.59962 -0.345286
0.549485 1.40278 -0.150031
0.352761 1.55724 -0.381788
0.380891 1.49649 -0.15422
0.544928 1.5042 -0.268729
0.507482 1.06184 -0.187894
0.458086 1.27456 -0.141072
0.364612 1.09313 -0.210215
0.518504 1.64344 -0.268329
0.524386 1.3692 0.0934633
0.501188 1.38922 -0.361496
0.396847 1.29888 -0.223329
0.36823 1.08977 -0.204131
0.505794 1.4724 -0.221137
0.436115 1.64367 -0.280653
0.419212 1.07182 -0.148617
0.499997 1.38842 -0.105634
0.46405 1.42873 -0.281348
0.367893 1.53643 -0.131921
0.452999 1.48171 0.00630557
0.398939 1.09057 -0.124557
0.518875 1.53859 -0.382294
0.382261 1.49418 -0.156343
0.592347 1.36198 -0.18637
0.55909 1.3671 0.0947496
0.669079 1.11788 -0.090868
0.374779 1.08635 -0.196312
0.48592 1.31629 -0.0941134
0.538903 1.08513 -0.303516
0.403473 1.28781 -0.219237
0.380613 1.15328 -0.0961583
0.247744 1.36606 -0.369897
0.298184 1.29676 -0.434321
0.447307 1.26879 -0.15195
0.709085 1.41819 -0.144201
0.560528 1.18149 -0.321786
0.377999 1.12306 -0.104804
0.619633 1.56812 -0.0169765
0.472629 1.0401 -0.231381
0.655743 1.5398 -0.0819107
0.539589 1.55978 -0.350644
0.446634 1.38365 -0.29144
0.30885 1.25253 -0.424569
0.37522 1.19044 -0.09479
0.476182 1.4404 -0.108609
0.40767 1.08071 -0.135402
0.372607 1.35652 -0.249599
0.499608 1.38655 -0.361135
0.469859 1.32426 -0.28457
0.466395 1.33048 -0.287995
0.305694 1.51704 -0.245493
0.567362 1.37803 0.0996508
0.419825 1.61435 -0.139856
0.493337 1.22012 -0.395672
0.433553 1.4779 -0.203698
0.387713 1.60339 -0.138304
0.375549 1.60311 -0.206529
0.626553 1.57844 -0.122446
0.431847 1.37747 -0.266616
0.655946 1.38656 0.0452756
0.489296 1.39047 -0.0952944
0.533961 1.07796 -0.294831
0.371667 1.54373 -0.118434
0.590457 1.60346 -0.258322
0.353461 1.11561 -0.239006
0.404157 1.48044 -0.180236
0.660414 1.36935 0.0400718
0.4766 1.44898 -0.261578
0.266423 1.46659 -0.329579
0.39451 1.45245 -0.225739
0.481945 1.152 -0.0238206
0.479868 1.45246 -0.257515
0.464044 1.11521 -0.355748
0.322083 1.36048 -0.233834
0.407867 1.4668 -0.207802
0.446314 1.26869 -0.153833
0.372086 1.39247 -0.252877
0.287932 1.36221 -0.438264
0.288036 1.51331 -0.303995
0.35236 1.11844 -0.241978
0.2689 1.29155 -0.314162
0.373788 1.08387 -0.323717
0.458554 1.34333 -0.294648
0.253045 1.40709 -0.359029
0.300278 1.21126 -0.251731
0.348297 1.54595 -0.387012
0.483065 1.429 -0.103491
0.496085 1.28171 -0.237833
0.33474 1.3564 -0.234675
0.671003 1.20026 -0.220692
0.493499 1.05362 -0.199615
0.275815 1.49326 -0.315721
0.547648 1.31795 -0.179572
0.709321 1.42257 -0.144707
0.523071 1.07742 -0.274915
0.619029 1.57734 -0.222544
0.518301 1.06835 -0.17922
0.375268 1.51211 -0.142371
0.705373 1.36247 0.0148315
0.325651 1.35967 -0.233555
0.299528 1.18039 -0.310755
0.495548 1.04351 -0.251074
0.621631 1.32795 -0.193005
0.633031 1.56967 -0.113567
0.584158 1.53095 -0.263277
0.292011 1.39152 -0.415528
0.402949 1.52728 -0.0814333
0.69465 1.33636 -0.176409
0.519877 1.64951 -0.154681
0.287679 1.35927 -0.440236
0.458503 1.1197 -0.0532402
0.392912 1.45007 -0.227627
0.683004 1.50914 -0.173342
0.596935 1.29403 -0.228173
0.260123 1.31938 -0.321218
0.489168 1.41111 -0.0995971
0.422987 1.63166 -0.16459
0.402022 1.20548 -0.427812
0.31779 1.38518 -0.437034
0.413192 1.37249 -0.257166
0.725556 1.35541 -0.09377
0.420641 1.07096 -0.150672
0.481841 1.30051 -0.26894
0.470319 1.36404 0.0429109
0.440916 1.38048 -0.275745
0.533465 1.2299 0.028741
0.622644 1.33886 -0.190683
0.433338 1.4811 -0.160836
0.386366 1.31767 -0.228082
0.267252 1.2381 -0.344775
0.329107 1.49921 -0.40835
0.317394 1.36191 -0.234454
0.356135 1.39444 -0.483242
0.397004 1.21688 -0.43408
0.33131 1.50422 -0.406565
0.584116 1.2866 -0.242878
0.289835 1.46966 -0.278555
0.717815 1.35146 -0.0222423
0.513912 1.30344 -0.336308
0.464573 1.04643 -0.231357
0.497154 1.34323 -0.0836116
0.556555 1.29526 0.0703496
0.370168 1.39558 -0.488707
0.656545 1.10264 -0.107341
0.359762 1.39458 -0.485373
0.589057 1.54098 -0.264479
0.316203 1.20121 -0.409471
0.321257 1.15729 -0.286148
0.444005 1.64748 -0.270233
0.672395 1.12398 -0.0862881
0.314274 1.21914 -0.41548
0.44937 1.38186 -0.298196
0.469842 1.31565 -0.441043
0.700221 1.45669 -0.0171593
0.469662 1.3069 -0.438292
0.469644 1.36376 -0.449015
0.469805 1.34132 -0.446245
0.653806 1.38366 0.0488542
0.38933 1.06808 -0.303715
0.47996 1.10145 -0.334551
0.504355 1.37561 -0.397901
0.475589 1.44707 -0.447844
0.545466 1.37272 0.0958886
0.474764 1.31537 -0.279037
0.253425 1.39318 -0.368671
0.514941 1.46429 -0.20425
0.308259 1.25662 -0.425386
0.638812 1.08594 -0.131435
0.504561 1.37667 -0.4054
0.258293 1.2987 -0.364352
0.479687 1.30815 -0.273296
0.546929 1.37503 -0.157194
0.596534 1.12802 -0.0725159
0.486049 1.45949 -0.24812
0.584829 1.16216 -0.304577
0.469867 1.34925 -0.44764
0.706932 1.4617 -0.154604
0.374194 1.40434 -0.248679
0.245578 1.38518 -0.341951
0.561258 1.32205 0.0826618
0.473782 1.28137 -0.188037
0.525597 1.49064 -0.302254
0.54044 1.50308 -0.274904
0.246221 1.38267 -0.312368
0.593157 1.58698 -0.250362
0.278921 1.26001 -0.296789
0.551493 1.41962 -0.151577
0.276141 1.2687 -0.302632
0.298992 1.5006 -0.258866
0.254245 1.31417 -0.366051
0.456207 1.65194 -0.253381
0.454846 1.65127 -0.255968
0.64875 1.1821 -0.245663
0.257694 1.39769 -0.299152
0.426094 1.04826 -0.266666
0.407248 1.07664 -0.158106
0.489442 1.38873 -0.0950358
0.71547 1.42288 -0.00079181
0.36053 1.29476 -0.483242
