ply
format ascii 1.0
element vertex 940
property float x
property float y
property float z
end_header
0.163276 0.885442 -0.379568
0.16192 0.885886 -0.382525
0.160919 0.885323 -0.385025
0.0888911 0.879522 -0.420407
0.135909 0.894684 -0.413702
0.0552906 0.876612 -0.378575
0.0539796 0.876734 -0.376674
0.268395 0.947599 -0.350286
0.267925 0.941447 -0.351201
0.210162 0.898194 -0.37128
0.243573 0.888898 -0.329428
0.237122 0.894791 -0.358622
0.241113 0.894146 -0.356731
0.268556 0.953935 -0.350205
0.239381 0.890858 -0.323538
0.0801292 0.878303 -0.420346
0.272626 0.992334 -0.350597
0.186483 0.888277 -0.278936
0.179595 0.888963 -0.329583
0.164752 0.887632 -0.374655
0.185353 0.889944 -0.285496
0.163295 0.909932 -0.220645
0.163832 0.913864 -0.221048
0.161829 0.906717 -0.221253
0.0594263 0.913588 -0.113898
0.0678777 0.973875 -0.121385
0.0589573 0.917413 -0.11401
0.0521199 0.926187 -0.117165
0.0872068 0.90234 -0.148822
0.252802 0.887774 -0.337598
0.184513 0.890646 -0.292687
0.184122 0.890578 -0.296313
0.207195 0.90257 -0.282857
0.27187 0.98278 -0.349847
0.260356 1.02939 -0.317637
0.184363 0.994937 -0.230173
0.179845 0.96388 -0.223668
0.224328 1.18397 -0.312987
0.223809 1.03913 -0.263422
0.222554 0.89869 -0.301425
0.25763 0.890159 -0.350704
0.0704524 0.927089 -0.112736
0.0587467 0.921461 -0.114406
0.230227 1.18257 -0.321405
0.0588675 0.925981 -0.115295
0.0726068 0.926713 -0.114968
0.106159 1.06545 -0.139424
0.079455 1.03705 -0.128635
0.0650093 0.958945 -0.11971
0.0925223 1.10702 -0.135925
0.0938737 1.11532 -0.137231
0.108581 1.20721 -0.151337
0.11014 1.21484 -0.154118
0.0545912 1.23435 -0.197778
0.107235 1.20269 -0.150027
0.166743 1.21643 -0.2873
0.18693 1.20389 -0.263607
0.225789 0.896823 -0.363492
0.226957 0.895693 -0.307347
0.215751 0.897763 -0.368091
0.232178 0.892624 -0.315779
0.107844 1.20478 -0.150537
0.270646 1.17867 -0.376607
0.280863 1.16816 -0.380514
0.243079 1.18122 -0.412431
0.245864 1.18128 -0.410441
0.17382 1.21483 -0.285014
0.186831 0.887566 -0.277402
0.239349 1.18133 -0.41521
0.177834 1.17759 -0.464357
0.162303 1.18491 -0.455566
0.285318 1.09789 -0.37691
0.28236 1.09077 -0.362387
0.277249 1.03753 -0.370859
0.276278 1.02479 -0.340155
0.22967 1.17381 -0.425986
0.0727241 0.882483 -0.411663
0.0764659 0.880159 -0.416695
0.283151 1.15734 -0.375841
0.281532 1.16642 -0.379431
0.261778 1.1802 -0.399087
0.114547 1.02035 -0.494678
0.0955445 0.881278 -0.423724
-0.0154476 1.03135 -0.491574
0.273353 1.03743 -0.371206
0.0903223 1.15912 -0.523892
0.0935554 1.16529 -0.521039
0.276672 1.1732 -0.385661
-0.0344986 1.2292 -0.491337
0.150123 0.997106 -0.442423
0.284428 1.13055 -0.369931
0.190998 1.05744 -0.243812
0.246637 1.1783 -0.343869
0.18088 0.889195 -0.322482
0.182552 1.21257 -0.28133
0.177346 1.2143 -0.28365
0.110738 1.06066 -0.154714
0.0445085 1.24648 -0.374895
0.24001 1.1638 -0.420419
-0.00548696 1.1805 -0.578454
0.000137865 0.967554 -0.530219
0.0543831 1.18588 -0.557978
0.0779573 1.02823 -0.127434
0.0108883 1.05314 -0.555004
0.0493538 0.914975 -0.140091
0.0130656 1.20102 -0.5767
0.0509548 1.24541 -0.368898
0.0433112 1.19002 -0.564765
0.0484692 1.18747 -0.561734
0.0432391 0.927419 -0.120761
-0.00590706 1.17311 -0.57657
-0.00584859 1.17828 -0.577925
0.014415 1.19928 -0.578707
0.059551 0.931313 -0.116255
0.0381201 0.928305 -0.123564
-0.00353551 1.10027 -0.55521
-0.139546 1.22311 -0.293757
0.0738198 1.13088 -0.539026
-0.00184226 1.19524 -0.581098
-0.00180346 1.19509 -0.581111
0.0730442 1.00081 -0.124524
-0.00284123 1.05025 -0.544072
-0.00145567 1.1951 -0.581206
0.259757 1.18044 -0.400479
0.133595 1.18914 -0.413508
0.257452 1.18046 -0.402212
0.149606 1.18576 -0.434787
-0.0390086 1.23689 -0.43483
0.00538415 0.926165 -0.153897
0.100648 1.22685 -0.163175
0.0682243 1.12504 -0.539168
-0.00403464 1.21426 -0.543177
0.0373351 1.23502 -0.302623
0.0729569 0.888105 -0.463954
-0.132088 1.23789 -0.313958
0.191602 0.902746 -0.267416
-0.140387 1.23525 -0.30131
0.0435802 0.918456 -0.139706
-0.141268 1.23342 -0.302612
-0.0164987 1.22214 -0.22271
-0.0845831 1.23535 -0.406241
-0.1245 1.2377 -0.302926
0.198899 1.1867 -0.264298
0.192823 1.19972 -0.27152
0.0578403 0.909025 -0.141007
0.201265 1.19151 -0.264367
-0.132964 1.23595 -0.305685
0.0946453 1.16739 -0.519996
0.00734377 1.2347 -0.254041
-0.141525 1.23185 -0.301272
0.150028 1.00831 -0.444448
0.0102451 1.23553 -0.260197
0.113295 1.22432 -0.16708
0.107546 1.22368 -0.161717
0.0614032 1.11766 -0.540147
0.0981026 1.22765 -0.165291
-0.00186425 1.19403 -0.580968
-0.0131606 0.912229 -0.247483
0.00344172 1.23428 -0.247013
-0.104344 1.23543 -0.371341
0.012598 1.23637 -0.225766
0.00554215 1.23583 -0.229391
-0.153591 1.07056 -0.282156
-0.157557 1.06458 -0.274477
-0.149414 1.07066 -0.287222
0.183125 0.98621 -0.228165
-0.0700589 1.12549 -0.445172
0.192246 1.10548 -0.254773
0.0950414 1.12322 -0.138242
0.0316775 1.24755 -0.385611
0.0381053 1.24747 -0.38053
0.171407 1.03046 -0.437484
-0.147352 1.06961 -0.291115
0.0895744 0.901831 -0.149671
-0.158803 1.05382 -0.274075
0.0925794 0.901546 -0.150623
0.0462877 1.10077 -0.542426
-0.142653 1.06766 -0.299785
0.0170811 0.92679 -0.144735
-0.145085 1.06878 -0.294957
-0.0224597 1.18489 -0.211353
-0.0397261 1.23961 -0.257472
0.191727 1.1164 -0.256662
0.122285 1.21975 -0.305813
0.158653 1.21681 -0.289415
-0.151076 1.12976 -0.278901
-0.136016 1.06508 -0.311378
0.116716 1.22498 -0.171457
-0.122897 1.23535 -0.334408
0.0250816 1.23503 -0.281365
0.0305036 0.927796 -0.131305
0.142758 1.21726 -0.295173
0.241498 1.17943 -0.336994
0.0415181 1.23513 -0.207474
-0.154183 1.07171 -0.281443
-0.0180153 1.23862 -0.242333
0.0117671 0.909556 -0.517023
-0.165526 0.969889 -0.269249
-0.139657 0.91943 -0.236581
-0.0726806 0.933349 -0.355355
-0.0151844 1.23215 -0.226787
-0.07689 0.932181 -0.35852
-0.0476918 1.23465 -0.444713
-0.0834858 0.9282 -0.364229
-0.010053 1.22078 -0.525626
-0.0974447 0.915604 -0.213358
0.141824 1.02486 -0.469531
0.0775681 0.925049 -0.122592
-0.157234 0.923194 -0.246226
-0.165069 0.92595 -0.283072
0.175554 1.04716 -0.220382
0.0765392 1.02043 -0.126044
-0.00123587 0.987727 -0.532904
0.0336931 0.927924 -0.128605
0.125534 1.22445 -0.183024
0.126257 1.05547 -0.175207
-0.136366 1.23123 -0.296616
0.174684 0.889912 -0.345683
-0.0677861 0.917514 -0.197219
0.0621869 0.944285 -0.118012
-0.148225 1.15161 -0.280583
0.199517 0.903266 -0.275128
0.183626 0.890668 -0.300274
0.105707 1.1965 -0.148526
0.180812 0.973186 -0.225753
0.116255 0.90719 -0.247396
-0.144772 0.923162 -0.308375
0.0606742 1.18398 -0.55354
0.0220607 0.891112 -0.515516
0.0878623 0.889285 -0.451577
-0.170581 0.925576 -0.275186
-0.0555211 1.04392 -0.421292
-0.0231031 1.17485 -0.213207
0.160564 0.897742 -0.398065
-0.14691 0.920546 -0.2406
-0.0032655 0.925429 -0.159428
0.0475654 0.91811 -0.282439
0.0528541 0.928375 -0.117354
0.191042 1.07414 -0.247599
-0.127052 0.919071 -0.335261
0.25224 1.17885 -0.352183
0.0203983 0.886932 -0.507566
-0.141562 0.922009 -0.314353
0.1074 1.22588 -0.316744
0.0811353 1.04755 -0.128478
0.23512 1.16895 -0.423659
0.177711 0.951008 -0.221112
-0.0306506 1.23708 -0.42837
-0.168211 0.916336 -0.262562
-0.0511547 0.904442 -0.429395
-0.00145793 1.19462 -0.581041
0.128212 0.893606 -0.419323
0.11303 0.915097 -0.166432
0.0266308 0.927178 -0.136169
0.169846 0.901553 -0.241341
0.132379 0.903941 -0.238374
0.0903813 0.880215 -0.420784
-0.117293 1.05964 -0.341195
-0.0197425 1.23974 -0.421396
-0.00432807 1.07773 -0.550041
0.0390017 0.884586 -0.349821
-0.0509104 1.02145 -0.213156
0.0353815 0.88668 -0.343664
0.0691942 0.904297 -0.143413
-0.166037 0.964354 -0.268441
-0.0237053 1.2165 -0.525639
0.0453624 0.926544 -0.120029
0.0745971 0.903128 -0.144602
-0.16135 0.925719 -0.287683
0.0649125 0.907133 -0.142213
0.284206 1.12242 -0.368634
-0.167645 0.941869 -0.265537
-0.167477 0.933491 -0.264463
-0.167293 0.951691 -0.266939
-0.0427844 0.913629 -0.201767
-0.154083 0.924875 -0.296511
0.145602 1.18473 -0.428075
-0.14702 1.15943 -0.281843
0.231983 1.1713 -0.424281
0.215918 1.17936 -0.434125
-0.139299 1.2321 -0.306366
0.106435 1.20001 -0.149281
0.0839644 0.902975 -0.147593
-0.172129 0.925408 -0.270952
0.0344388 1.23572 -0.212827
-0.0491172 1.23338 -0.445933
-0.171847 0.92541 -0.272681
0.176389 0.899188 -0.389512
-0.167787 0.925631 -0.263186
-0.0249269 0.933045 -0.324253
-0.0309413 0.93379 -0.328058
-0.151701 1.16972 -0.294211
-0.150644 1.17314 -0.298762
0.281214 1.07888 -0.360453
-0.0775406 1.23464 -0.417961
0.126844 1.21817 -0.302741
0.235003 1.18084 -0.418796
-0.0457333 0.913682 -0.196557
-0.00277466 1.10736 -0.556898
0.0200158 1.23488 -0.273751
0.0670893 1.18181 -0.549344
0.0156214 1.23494 -0.268047
0.0119612 1.05527 -0.554815
-0.0223297 0.897195 -0.466561
-0.167424 0.929184 -0.26399
-0.150038 0.924128 -0.302052
-0.14945 1.14207 -0.279679
-0.0195416 1.20305 -0.216372
0.0211731 1.20412 -0.572245
-0.168603 0.925631 -0.278108
-0.0268042 0.898799 -0.45944
-0.0295555 1.12278 -0.216035
0.0136595 0.888879 -0.510637
0.00671664 1.2459 -0.404606
0.0668343 0.887602 -0.469643
0.0586717 0.887558 -0.475819
0.138658 1.21718 -0.296776
0.0834768 0.877353 -0.42047
-0.00457023 0.893068 -0.489156
0.0780214 0.879658 -0.418514
0.025212 0.8868 -0.504532
-0.0839155 0.973951 -0.41202
0.0217623 0.886882 -0.506814
0.0163901 0.8893 -0.512379
0.0166909 0.891136 -0.514105
0.0159023 0.893265 -0.514631
0.0193915 0.890205 -0.513888
-0.00139052 1.19596 -0.581079
0.0304402 0.886861 -0.500024
0.167997 0.888846 -0.365396
0.148586 0.954137 -0.431866
0.148863 0.946607 -0.43015
0.0160508 0.886703 -0.509825
0.0195532 0.886828 -0.508413
0.0193461 1.06551 -0.552946
-0.159832 1.02982 -0.273644
-0.0180521 0.896087 -0.47249
0.0776978 1.1351 -0.538779
0.0112113 1.02537 -0.545413
0.0660872 0.96589 -0.12012
0.0465213 0.887163 -0.486299
0.0122463 1.02502 -0.546113
0.0116185 1.02437 -0.545863
-0.163956 0.985801 -0.270731
0.0821614 0.877647 -0.420641
0.0105292 1.02606 -0.540277
-0.00238228 1.11462 -0.558743
0.0106137 1.0257 -0.542867
-0.000855952 0.98073 -0.53201
-0.00118309 1.00994 -0.535624
0.0923007 1.21521 -0.37174
0.103639 1.17865 -0.145899
0.00466406 1.00531 -0.532555
-0.0734448 1.09186 -0.442468
0.285934 1.09512 -0.374131
-0.00371543 1.05676 -0.545751
-0.0723022 1.11357 -0.444932
0.26455 1.17914 -0.397534
0.036518 0.886985 -0.495225
0.0155299 1.00771 -0.530299
0.0319456 0.886927 -0.498778
-0.158143 0.925612 -0.29137
-0.0690669 1.21577 -0.454179
0.00612339 1.00547 -0.531477
0.0881605 1.07942 -0.1326
0.00832498 1.00576 -0.531016
0.00460222 1.02701 -0.531563
0.0315049 1.08244 -0.547198
0.147262 1.2176 -0.293512
-0.082952 0.995545 -0.418663
0.229967 1.03765 -0.270796
-0.081568 1.00267 -0.420382
0.017978 1.00854 -0.529592
0.147764 1.07729 -0.453246
-0.0672587 0.934324 -0.351596
-0.0172158 1.21354 -0.220651
0.0317212 1.01148 -0.526027
0.246081 1.15629 -0.414953
0.00703423 1.16936 -0.549667
0.256864 1.03659 -0.377526
0.279209 1.05445 -0.357051
0.263985 1.03692 -0.374749
0.10255 1.17019 -0.143887
0.0272428 1.07686 -0.548762
-0.00431582 1.07078 -0.548658
-0.00442895 1.0634 -0.547294
-0.0319711 0.900026 -0.452809
-0.00909902 1.02922 -0.50691
-0.00529876 1.02856 -0.514104
-0.0366065 0.901151 -0.446584
0.00523102 1.23423 -0.249879
0.0360806 1.01177 -0.525803
-0.1424 1.2014 -0.289386
-0.0826059 0.93156 -0.395476
0.149748 0.920146 -0.422384
0.148926 1.04264 -0.450486
0.129057 1.17749 -0.160266
-0.0238412 1.16147 -0.214597
0.119261 1.02096 -0.489705
0.0628142 0.880901 -0.392681
0.0517476 0.878085 -0.373032
0.060764 0.878891 -0.38866
0.0574999 0.877243 -0.382022
0.150795 1.21762 -0.292369
0.199964 0.899265 -0.375428
0.147389 1.09768 -0.454896
0.15836 1.05001 -0.204914
0.18744 0.886781 -0.276027
0.165992 1.04858 -0.212026
0.227741 1.03545 -0.39082
0.0269195 1.01081 -0.527227
-0.0310284 1.03717 -0.458628
-0.148425 1.18036 -0.307183
0.0860961 1.0681 -0.131728
0.149395 0.936409 -0.428153
0.0819064 0.924373 -0.127895
-0.0700523 0.954567 -0.191852
0.10919 1.20921 -0.152261
-0.06951 0.946009 -0.190762
0.149139 1.12481 -0.461259
0.134502 1.05431 -0.182209
0.265682 1.02755 -0.326537
0.107596 1.20486 -0.386942
0.0968857 0.901295 -0.152134
0.0380804 0.923156 -0.139459
-0.0327594 1.10001 -0.217523
0.187681 1.04539 -0.230521
0.0967863 1.17214 -0.515931
0.111547 0.891389 -0.433072
0.102056 0.891004 -0.438759
-0.0385875 1.07465 -0.217663
0.257182 0.890136 -0.351386
-0.167645 0.937927 -0.2649
0.0258765 0.923995 -0.293845
0.1539 1.18503 -0.441091
-0.0458433 1.2357 -0.442158
-0.0655189 0.978375 -0.19782
-0.0836041 0.968656 -0.410208
0.255972 0.886766 -0.340878
0.0401942 0.928074 -0.122112
0.129893 1.22385 -0.188987
0.101873 1.16673 -0.142617
-0.000270128 0.892001 -0.494103
0.18126 1.21367 -0.282041
0.266548 1.17865 -0.396339
0.121196 1.05685 -0.169426
0.127622 1.17517 -0.154971
0.0734265 1.18053 -0.544863
0.125241 1.1721 -0.148804
0.19557 1.17918 -0.264079
0.211747 1.04126 -0.251626
0.283929 1.10318 -0.364049
-0.00946669 0.89417 -0.483419
0.143535 1.05264 -0.191095
0.198424 1.19604 -0.279194
0.258879 0.890481 -0.34924
0.191857 1.15792 -0.262468
0.0480968 0.879689 -0.366229
0.265198 1.12977 -0.396256
0.2751 1.01715 -0.352596
-0.159144 1.04624 -0.273935
-0.0512445 0.934936 -0.341104
0.0301926 1.23403 -0.289769
-0.0397507 0.914759 -0.206314
-0.0128777 1.22223 -0.522444
0.211636 1.19086 -0.297233
-0.132924 0.918622 -0.232126
-0.026647 1.03568 -0.466821
0.281744 1.16047 -0.377613
0.260783 1.13677 -0.400999
0.091324 0.879658 -0.420535
-0.0487144 1.23113 -0.46777
-0.12912 1.23693 -0.321002
-0.0778042 0.918923 -0.391131
0.00997874 1.20377 -0.569439
0.102347 0.900276 -0.154316
-0.0171681 0.93327 -0.319287
0.00891313 1.20484 -0.567449
-0.166616 0.958079 -0.267693
0.284232 1.11364 -0.36671
-0.0035512 1.18411 -0.542781
0.189522 1.04763 -0.242068
0.0111488 0.914352 -0.517353
0.134992 1.21704 -0.298428
0.266489 1.17809 -0.370711
0.0373653 0.921156 -0.287496
0.21354 1.03504 -0.399535
0.254601 1.14598 -0.407866
0.260313 0.886237 -0.345285
-0.0253588 0.914386 -0.226635
0.140655 1.22113 -0.203658
-0.160922 1.02013 -0.27295
0.202573 1.03466 -0.409588
0.270482 0.971299 -0.349365
-0.133007 1.06384 -0.317048
0.0685186 1.22689 -0.345351
0.274048 1.00477 -0.350762
-0.070459 1.23429 -0.430316
0.248955 1.0362 -0.3797
-0.0223018 1.03378 -0.47669
-0.118343 1.23453 -0.344116
0.0743098 0.925813 -0.118223
0.135474 1.22308 -0.196876
0.13861 1.18661 -0.178967
0.0126484 0.905674 -0.516694
0.0107837 1.02545 -0.544515
0.179133 0.959899 -0.222828
0.148331 1.11526 -0.458734
0.084349 1.23361 -0.335867
0.268332 1.12458 -0.392541
-0.153957 1.09901 -0.276423
0.182054 0.89959 -0.385566
-0.044247 0.912915 -0.198941
0.149177 0.965951 -0.435789
0.144041 1.19053 -0.185933
-0.118882 1.22278 -0.361623
0.177242 0.89026 -0.337717
-0.0192078 1.03254 -0.483713
0.103949 1.18256 -0.146133
0.0422397 0.883208 -0.355627
0.185288 1.00953 -0.233766
0.0119815 0.889231 -0.507969
-0.152954 0.921956 -0.243617
-0.111346 1.2349 -0.358124
-0.0276142 1.13196 -0.21529
-0.00952166 1.21738 -0.533361
0.257513 1.17828 -0.358988
0.0553041 0.915427 -0.278495
0.284396 1.13866 -0.371559
0.0899933 1.08814 -0.134053
-0.0406784 1.23662 -0.436447
0.262209 1.1774 -0.364936
0.163544 0.915534 -0.221511
-0.162252 1.00093 -0.271711
0.236667 1.03629 -0.279094
-0.0378961 0.93576 -0.332543
0.284208 1.15235 -0.374063
0.151101 1.19637 -0.195026
-0.0464343 0.903197 -0.435171
-0.0178536 1.20894 -0.219187
-0.00331613 0.929506 -0.310491
-0.000990391 0.995552 -0.533629
0.18075 1.20601 -0.255023
-0.0722799 1.04812 -0.398357
0.0805036 1.22125 -0.359299
0.00780827 1.20609 -0.565476
0.0191572 1.24665 -0.394844
-0.153766 1.07103 -0.281756
-0.106938 1.05699 -0.353384
-0.0456836 1.0417 -0.434519
-0.0042026 1.18743 -0.58007
0.190975 1.13215 -0.259906
0.235426 1.18103 -0.328796
-0.112044 1.05828 -0.347134
-0.0412151 1.23078 -0.480285
-0.0649769 1.17397 -0.448077
-0.13081 1.23773 -0.317181
0.100918 1.01837 -0.505617
-0.0243598 1.23856 -0.424527
0.00252557 1.00485 -0.532987
-0.102397 1.2422 -0.295294
0.191691 1.14654 -0.261091
-0.0261173 1.21957 -0.52406
-0.127182 1.23694 -0.303844
0.0544504 1.11 -0.540742
0.281273 1.03739 -0.368068
0.102732 0.899673 -0.154596
-0.0163476 0.913963 -0.2413
0.232894 0.895817 -0.359764
0.00955562 1.15933 -0.555399
-0.0829031 1.05032 -0.385614
-0.0410216 1.06388 -0.217232
0.0111509 1.2029 -0.572014
-0.122221 1.06087 -0.334447
0.194982 1.17313 -0.263693
0.185859 1.02091 -0.236365
0.0462009 1.23371 -0.315987
-0.0667869 1.20656 -0.452448
0.240308 1.0354 -0.382402
-0.0630036 1.23399 -0.443525
-0.0835041 0.942957 -0.399684
-0.0694854 0.959359 -0.193272
0.110178 1.21226 -0.154112
-0.102014 1.05536 -0.361155
-0.0360109 1.03862 -0.451152
0.0356663 0.922535 -0.138782
-0.0347283 1.23659 -0.43084
-0.0877732 0.915798 -0.208679
0.0785322 0.902988 -0.145533
-0.143564 1.18951 -0.286209
0.0440192 1.01221 -0.52474
-0.13405 0.919935 -0.328148
0.278105 1.10767 -0.38135
0.257852 0.885938 -0.342832
0.0622471 1.01357 -0.521389
-0.120733 1.23491 -0.339148
0.00492135 0.942725 -0.523593
0.0858413 1.01642 -0.51396
0.254356 0.890656 -0.353302
-0.139665 1.22958 -0.305201
-0.00214475 1.12206 -0.560771
0.0398382 1.01189 -0.525185
0.0640679 0.881164 -0.395023
0.0776186 1.01536 -0.517263
0.169044 0.898599 -0.393537
-0.116138 1.23456 -0.348546
0.0968171 1.22935 -0.325485
0.278086 1.04173 -0.355123
-0.0250981 1.23861 -0.247302
0.101746 1.22762 -0.321282
-0.0650431 1.19554 -0.450325
-0.00185883 1.12888 -0.562693
0.185756 0.889777 -0.280848
0.193014 1.16528 -0.263407
-0.00298142 1.1909 -0.580529
-0.0778493 1.04928 -0.391597
0.273804 1.11468 -0.385674
0.119076 0.892681 -0.425869
-0.0532944 1.01234 -0.210904
-0.0255847 1.14017 -0.215561
-0.143724 1.18212 -0.285351
-0.0497903 1.2323 -0.446914
-0.0112754 0.924832 -0.16418
0.188223 0.899452 -0.38232
-0.145791 1.18882 -0.316708
-0.126129 1.06169 -0.328488
-0.150963 1.07138 -0.284812
0.250228 1.15188 -0.412328
-0.166679 0.925919 -0.280032
0.114967 1.05976 -0.159665
0.176997 0.902287 -0.249348
-0.0672639 0.907627 -0.412384
-0.00656156 1.24291 -0.413423
0.0412123 1.09481 -0.543748
0.149919 0.987868 -0.440757
-0.0982051 1.23529 -0.382093
-0.0501755 1.23157 -0.447518
0.0147371 1.20016 -0.576619
0.269363 0.962101 -0.350019
0.168364 1.21589 -0.286812
-0.013108 1.24165 -0.417546
-0.00657578 1.21624 -0.537953
0.122961 1.16923 -0.142479
-0.0204679 1.20996 -0.527841
0.173826 1.20923 -0.246477
0.119463 1.16625 -0.136602
0.151263 1.1454 -0.467862
0.0841502 1.05768 -0.130874
0.103121 1.06598 -0.135552
-0.0652311 1.18722 -0.449518
0.10006 0.908925 -0.256479
0.0154557 1.06031 -0.553828
0.0114013 0.926935 -0.148675
-0.0609126 1.23933 -0.27234
0.0955626 0.889979 -0.445393
0.283942 1.14569 -0.373287
-0.0701786 0.94967 -0.191042
0.135533 1.02363 -0.475923
0.0469502 0.916464 -0.139907
-0.121339 1.22052 -0.358858
0.101247 0.90113 -0.154119
-0.066447 0.974928 -0.196907
0.195267 1.03383 -0.415591
0.179591 1.21431 -0.282782
0.00891426 0.923892 -0.518912
-0.0306011 0.915078 -0.218937
0.0848148 0.877498 -0.420415
0.00146911 1.23368 -0.245956
0.0910898 1.09669 -0.134758
-0.0354372 0.914388 -0.212116
0.230009 0.896322 -0.361422
0.2051 1.19327 -0.288587
0.0481049 1.23488 -0.202621
0.0740228 1.22451 -0.352292
0.166667 1.2121 -0.237452
0.0679424 0.882998 -0.403482
-0.146244 1.16809 -0.2826
0.149978 0.91411 -0.420403
-0.0501761 1.23161 -0.448316
0.19156 1.08474 -0.250097
0.022915 0.927082 -0.140096
-0.00549907 1.2152 -0.539723
-0.0691419 0.943565 -0.190507
0.148162 1.06477 -0.452492
0.139149 1.18707 -0.420095
-0.0665816 1.04672 -0.406047
0.100543 1.20979 -0.380272
-0.0100851 1.18956 -0.539604
0.0472997 0.926157 -0.118854
-0.063243 0.985567 -0.200381
0.0927383 1.22916 -0.169952
-0.13607 1.20457 -0.336966
-0.142428 1.19485 -0.288196
0.100681 1.16065 -0.141715
-0.0115493 1.21819 -0.530571
-0.068601 0.963141 -0.194873
0.00343014 0.891216 -0.498022
0.14861 1.05217 -0.451459
0.00423035 0.947441 -0.524842
0.0273938 1.23588 -0.217917
-0.0176151 1.19886 -0.532564
-0.0105969 1.23855 -0.237836
0.275939 1.0282 -0.354202
0.0923308 0.921934 -0.141264
0.122313 1.22463 -0.178618
-0.0046463 1.18539 -0.579652
0.149582 0.924738 -0.424079
0.00864136 0.928821 -0.303208
0.0535666 1.23192 -0.326159
0.205231 0.898718 -0.373577
0.153784 1.19898 -0.19898
0.00740327 1.1552 -0.559599
-0.0386833 0.920678 -0.181224
0.0337634 0.886973 -0.497437
-0.167604 0.922705 -0.263038
-0.141611 1.21304 -0.291659
0.0068924 1.2069 -0.563363
0.0406323 0.887138 -0.491046
-0.0369938 1.08212 -0.217545
0.142458 0.89609 -0.407884
-0.149536 1.17664 -0.302946
0.0774238 1.23079 -0.180888
0.0873396 0.911074 -0.26254
-0.153799 1.07116 -0.281803
-0.0157049 1.2301 -0.225757
0.113784 1.22343 -0.311758
-0.0670352 1.1473 -0.445993
0.164 1.02926 -0.446196
0.00659058 1.02681 -0.534381
0.1597 0.883998 -0.387947
0.181757 0.8901 -0.3163
0.00950721 0.889655 -0.505143
0.0664949 0.882967 -0.400712
0.0525274 1.0128 -0.523413
-0.124698 1.21566 -0.352413
0.0788725 0.912056 -0.266727
0.0249904 1.24695 -0.390575
-0.00493857 1.08492 -0.551835
0.249975 0.892057 -0.355053
0.0363135 1.08826 -0.545811
-0.0935242 1.05313 -0.372443
0.0160522 0.926942 -0.29901
-0.0556955 1.2329 -0.456174
0.0965387 1.13325 -0.1391
0.160054 1.21458 -0.229211
0.104724 1.1904 -0.146982
0.091108 1.16138 -0.522229
0.028416 1.01112 -0.526729
0.148339 1.19385 -0.191128
-0.0274096 1.22805 -0.502476
-0.16295 0.993782 -0.271244
-0.142263 1.20792 -0.290362
-0.161877 1.00757 -0.27207
0.0844395 1.14505 -0.534466
0.146362 1.22021 -0.211427
-0.0691834 1.13733 -0.445895
0.191939 1.0937 -0.25253
-0.0508693 1.04284 -0.427681
0.0908668 1.23135 -0.330361
0.258267 0.89029 -0.349924
-0.05588 0.905251 -0.424698
-0.0679289 0.966815 -0.19561
0.17329 1.17738 -0.467872
0.14963 0.9798 -0.439094
0.0246159 1.20239 -0.571124
-0.161399 1.01387 -0.272599
0.271136 1.17673 -0.393521
-0.00304159 1.21371 -0.545141
0.0700937 0.88314 -0.407324
0.107524 1.01939 -0.500996
-0.0186178 0.914372 -0.237198
-0.139732 1.19895 -0.328815
0.23171 1.18003 -0.421599
-0.10736 1.23905 -0.2977
-0.0695469 1.22106 -0.454833
-0.0464465 1.03822 -0.216828
-0.0608029 1.04549 -0.413156
0.0228109 1.07017 -0.551594
-0.144409 1.17521 -0.284274
-0.0966269 1.24324 -0.292674
0.0610194 1.23258 -0.192893
0.110345 1.21728 -0.154631
0.251985 1.03219 -0.303361
-0.0593627 0.93535 -0.346282
0.0522191 0.887472 -0.480895
0.0980799 0.920048 -0.148809
-0.137462 1.22826 -0.29587
-0.0613726 0.906646 -0.418492
0.17116 0.890408 -0.355722
-0.0145961 1.19349 -0.536692
0.063188 1.22902 -0.339127
0.156232 1.21697 -0.290373
0.149606 1.02786 -0.448622
-0.00158804 1.02806 -0.520034
-0.0409843 0.902126 -0.44108
-0.152835 1.07223 -0.282301
-0.167793 0.944603 -0.265886
-0.133267 1.23764 -0.310943
-0.0831403 0.934782 -0.396647
-0.0822804 1.23966 -0.285518
-0.0654308 1.16479 -0.447279
0.0608827 0.938702 -0.11685
0.0240625 1.01023 -0.52847
-0.0917764 1.23529 -0.393696
-0.0841391 0.950147 -0.402869
-0.0610681 0.991265 -0.203437
-0.129983 1.23711 -0.304507
0.119207 1.22426 -0.174392
0.161092 1.21721 -0.288646
-0.00177617 1.21296 -0.547402
-0.00500745 1.18336 -0.579186
-0.0836384 0.945524 -0.400718
-0.0217451 0.914389 -0.232102
0.109307 1.22348 -0.163428
-0.0189727 0.923622 -0.169255
-0.0733006 1.10365 -0.444055
-0.0883633 1.0517 -0.378946
-0.0208439 1.1936 -0.213487
0.149853 1.01563 -0.445419
0.00607848 0.937956 -0.522244
0.0800914 0.888573 -0.457806
-0.0726124 0.908816 -0.405515
-0.0448173 1.04554 -0.217251
0.0268282 0.886859 -0.502873
0.108778 0.907456 -0.251763
0.185517 0.889855 -0.282759
0.00665803 0.890362 -0.501762
0.105757 0.918007 -0.157757
0.127395 1.02235 -0.48305
0.184479 0.902516 -0.25834
0.0307078 1.19615 -0.570668
-0.0430626 1.05421 -0.217754
0.074516 1.00997 -0.124863
0.187909 1.03803 -0.240425
-0.0770198 0.915624 -0.390055
0.0135962 0.902418 -0.516141
0.082516 1.23124 -0.177285
-0.0190344 1.20382 -0.529953
0.280014 1.0662 -0.358672
-0.139268 1.06677 -0.30478
-0.0160062 1.22415 -0.51834
0.153464 1.21759 -0.220893
0.0978883 1.14211 -0.139915
-0.0896324 1.24128 -0.289568
0.152097 1.15094 -0.470302
0.107029 1.06321 -0.144304
-0.129519 1.21077 -0.345911
0.0105665 0.918912 -0.517926
0.0199186 1.23614 -0.22206
-0.0831853 0.962675 -0.407963
0.00163195 1.02737 -0.526553
0.0991897 1.15087 -0.141147
-0.00838709 0.911123 -0.256458
-0.0401186 1.04038 -0.442363
0.0204658 1.00927 -0.529337
0.0118749 1.20246 -0.574262
-0.00305775 1.2378 -0.233643
0.127482 1.19186 -0.406446
0.00718775 0.933285 -0.520956
-0.0573655 1.00096 -0.2072
0.10317 1.1742 -0.145148
-0.0485704 1.0309 -0.215259
0.0696135 0.98248 -0.122626
-0.00445288 1.09286 -0.553592
0.147444 1.08946 -0.453881
-0.0131872 1.21822 -0.528278
0.000437833 1.18045 -0.544913
0.0873653 0.923582 -0.134237
-0.167817 0.919361 -0.26273
0.0419843 1.2345 -0.310133
0.164228 1.21155 -0.218052
0.151646 0.896704 -0.40334
-0.0423469 1.23617 -0.438026
0.127856 0.905303 -0.241224
0.0024189 0.957699 -0.52751
0.169008 0.889571 -0.362539
0.211837 1.17923 -0.437315
0.0499905 0.926182 -0.117134
-0.129449 1.06266 -0.323331
-0.0448116 1.23598 -0.440929
-0.113084 1.23876 -0.29947
-0.0982952 1.0543 -0.36627
-0.124704 1.23572 -0.330514
-0.0324362 1.23897 -0.252671
-0.021455 1.22605 -0.510952
0.131172 1.21734 -0.300345
0.116793 1.19906 -0.396541
0.0665513 1.23267 -0.188446
0.281373 1.10309 -0.379143
0.0216083 0.891323 -0.515186
0.22827 1.17942 -0.424565
-0.159213 1.03824 -0.273973
-0.156188 1.07303 -0.275141
-0.126566 1.23608 -0.326345
0.158799 1.18362 -0.448579
-0.00227261 1.19314 -0.580847
0.000840247 0.962356 -0.528966
-0.084431 0.955503 -0.405173
-0.083386 0.978474 -0.413294
-0.0151116 1.21831 -0.525515
0.159726 1.2066 -0.210523
-0.143221 1.19335 -0.321925
0.106018 1.22276 -0.159402
-0.0433451 1.23602 -0.439115
0.183109 0.890125 -0.306264
-0.00360757 1.18931 -0.580345
0.187042 1.03286 -0.422505
-0.0530431 1.23888 -0.267107
0.000366241 0.974681 -0.53088
0.131914 1.18092 -0.167745
0.0705747 0.912813 -0.270905
0.135313 1.18416 -0.174361
0.0940283 1.0175 -0.510268
0.109334 1.21807 -0.156325
0.17943 1.03178 -0.429112
0.191163 1.12401 -0.258434
0.220674 1.03526 -0.394794
0.0146762 0.898778 -0.515525
0.0451823 0.881933 -0.361036
0.153004 1.15708 -0.473153
0.1573 1.20291 -0.204816
-0.013685 0.895109 -0.47812
0.063587 0.95099 -0.119078
-0.0121017 1.03023 -0.499414
0.105243 1.19335 -0.14788
0.0821509 1.1412 -0.536401
-0.0463054 1.23548 -0.443085
0.214494 0.900613 -0.292285
0.162148 1.20948 -0.214649
-0.0468323 0.914655 -0.194896
-0.0311168 1.11183 -0.216351
0.241755 1.03476 -0.287631
-0.121277 1.23834 -0.301673
-0.0281667 0.914965 -0.222619
0.0287903 0.886858 -0.501429
0.194806 0.899166 -0.378995
0.150182 1.1364 -0.464085
0.172891 0.890378 -0.350708
0.152723 1.16303 -0.474504
-0.140917 1.21817 -0.292682
