ply
format ascii 1.0
element vertex 1146
property float x
property float y
property float z
end_header
0.666285 1.33694 -0.120139
0.661214 1.42279 -0.143422
0.510323 1.1828 -0.0141732
0.477698 1.18908 -0.0195077
0.485675 1.18094 0.00220913
0.482838 1.18095 0.00469706
0.485751 1.1911 -0.0031594
0.494321 1.19083 -0.00357813
0.531124 1.18762 -0.0283161
0.556993 1.20737 -0.0448764
0.657009 1.26893 -0.0975206
0.583592 1.21899 -0.0618653
0.526465 1.18481 -0.0253288
0.483751 1.19081 -0.0084793
0.490069 1.19689 -0.000830173
0.477028 1.17948 0.0102749
0.480114 1.19002 -0.0163972
0.53711 1.19188 -0.0322757
0.501515 1.18478 -0.00790486
0.502855 1.18456 -0.00880103
0.566606 1.21986 0.1038
0.576755 1.23236 0.126282
0.569058 1.22368 0.110017
0.533861 1.18967 -0.030182
0.666817 1.36455 0.17105
0.57983 1.43426 0.22373
0.576404 1.43328 0.226461
0.529614 1.36656 0.261389
0.506663 1.34725 0.264178
0.533146 1.36999 0.260701
0.600101 1.42414 0.220528
0.60038 1.42035 0.220399
0.601857 1.43206 0.21452
0.599988 1.35588 0.218207
0.598745 1.39621 0.222279
0.598888 1.39 0.222027
0.617861 1.44592 0.211221
0.635387 1.40586 0.197087
0.676652 1.34575 0.149919
0.605301 1.4373 0.211576
0.62215 1.41943 0.201845
0.624581 1.41727 0.201495
0.650628 1.3882 0.187785
0.618308 1.42365 0.203811
0.616382 1.42572 0.204956
0.612383 1.42944 0.207713
0.637127 1.44729 0.195149
0.620201 1.44612 0.209688
0.663465 1.36967 0.175307
0.599676 1.33723 0.211662
0.633145 1.44746 0.19914
0.600785 1.43395 0.214522
0.604249 1.43841 0.211983
0.566079 1.43353 0.231754
0.592619 1.44367 0.217628
0.591307 1.4419 0.219167
0.573071 1.4144 0.235884
0.637363 1.50833 0.182519
0.588661 1.46046 0.215175
0.586887 1.46392 0.214661
0.642904 1.39669 0.192942
0.65275 1.45006 0.178187
0.60626 1.43607 0.210778
0.499108 1.19046 0.0122143
0.473558 1.43324 0.254627
0.552355 1.43759 0.237213
0.554178 1.43667 0.237106
0.555873 1.43584 0.236463
0.598756 1.37096 0.220786
0.618827 1.46981 0.207191
0.574363 1.44893 0.228423
0.57925 1.45723 0.22863
0.600583 1.41636 0.220848
0.566527 1.50001 0.206313
0.622201 1.47449 0.205011
0.520537 1.51089 0.251722
0.547988 1.49341 0.247697
0.632174 1.49609 0.19137
0.568603 1.49649 0.207359
0.634319 1.50151 0.18702
0.646947 1.54933 0.142469
0.564035 1.50311 0.204725
0.598861 1.37693 0.221289
0.538588 1.44483 0.24049
0.560222 1.48431 0.244616
0.535257 1.44565 0.240633
0.527584 1.50637 0.250319
0.534827 1.5026 0.250666
0.526507 1.44626 0.242856
0.545377 1.52619 0.19485
0.706889 1.46605 -0.0125514
0.445611 1.64406 0.0892149
0.643555 1.5315 0.161933
0.644899 1.53777 0.155657
0.667864 1.45279 0.154341
0.647808 1.55981 0.127889
0.648003 1.57196 0.112372
0.707362 1.46547 -0.00441772
0.706895 1.46267 0.0495554
0.650505 1.4705 -0.137765
0.70976 1.4644 0.0305288
0.710351 1.4649 0.0213475
0.484915 1.19057 -0.00579107
0.681524 1.28687 0.0268247
0.64344 1.50046 -0.149871
0.686436 1.46665 -0.0798694
0.608559 1.25776 -0.159519
0.662723 1.40448 -0.140493
0.681186 1.46689 -0.0917184
0.592751 1.57502 -0.141555
0.558668 1.63166 -0.131296
0.646219 1.46454 -0.156622
0.480799 1.31007 -0.21687
0.491992 1.30338 -0.216219
0.57509 1.26827 -0.184943
0.664209 1.35312 -0.125775
0.709129 1.46512 0.0127068
0.611371 1.45726 -0.193008
0.51186 1.64786 -0.0952296
0.560752 1.62978 -0.132806
0.582823 1.63558 -0.101114
0.670017 1.46677 -0.11243
0.578075 1.63469 -0.107045
0.546786 1.63606 -0.12073
0.500004 1.65137 -0.0863195
0.519928 1.35757 0.263697
0.552214 1.38959 0.252363
0.57075 1.61477 -0.137292
0.60903 1.63266 -0.0509132
0.561857 1.63262 -0.124499
0.541909 1.63603 -0.115829
0.591713 1.63743 -0.0882767
0.514762 1.61182 -0.167641
0.602864 1.6352 -0.0659217
0.493825 1.65275 -0.0814558
0.550928 1.63563 -0.124837
0.553501 1.63436 -0.128073
0.552372 1.63532 -0.127084
0.423732 1.66451 -0.032268
0.525972 1.364 0.26164
0.417632 1.64725 -0.00379908
0.534995 1.62186 -0.150548
0.439592 1.66774 -0.0481269
0.433796 1.66681 -0.04292
0.509488 1.6486 -0.0935451
0.446091 1.66676 -0.0527656
0.476617 1.58631 -0.192588
0.453839 1.66475 -0.0567869
0.383116 1.47935 -0.204559
0.532219 1.63823 -0.108559
0.354296 1.44032 -0.189935
0.365823 1.45681 -0.199638
0.617805 1.62715 -0.0233692
0.603231 1.55807 -0.14398
0.317326 1.44602 -0.15909
0.336877 1.41964 -0.16492
0.331422 1.42328 -0.161082
0.316896 1.43463 -0.152816
0.66536 1.34174 -0.121114
0.304378 1.43199 -0.139891
0.302742 1.43403 -0.138029
0.260833 1.47221 -0.097214
0.344577 1.42006 -0.172679
0.331019 1.59257 -0.103673
0.328709 1.41765 -0.160977
0.31385 1.53365 -0.137705
0.240632 1.489 -0.0748085
0.607712 1.55214 -0.145273
0.243073 1.48724 -0.0778667
0.237932 1.49235 -0.07006
0.316394 1.48692 -0.151191
0.451232 1.66501 -0.0550349
0.416872 1.66021 -0.0231413
0.414144 1.65901 -0.0196016
0.415851 1.65164 0.0275825
0.414246 1.64978 0.0229452
0.404191 1.65628 -0.00749457
0.577856 1.59917 -0.138053
0.637836 1.60614 0.0444244
0.572285 1.43267 0.228701
0.404627 1.6562 -0.00795782
0.404825 1.65603 -0.00807416
0.405552 1.64697 -0.00734726
0.399744 1.64652 -0.00592291
0.617914 1.45846 -0.187821
0.401561 1.6457 -0.00584543
0.664026 1.39038 -0.138585
0.221166 1.52316 -0.0182095
0.449023 1.55873 -0.20162
0.425288 1.66519 -0.0344882
0.422585 1.66385 -0.0307237
0.365344 1.62512 -0.0603102
0.639894 1.60261 0.0532851
0.310649 1.56657 0.153983
0.625094 1.6204 0.000867724
0.267634 1.51106 0.116245
0.286566 1.38845 0.0990031
0.415948 1.41994 0.239687
0.694616 1.46622 -0.0594538
0.422277 1.42103 0.243376
0.647052 1.49545 -0.150269
0.505467 1.18386 -0.0107184
0.368542 1.56075 0.197002
0.547221 1.38382 0.254415
0.542049 1.37892 0.257401
0.518165 1.44531 0.245142
0.630747 1.44723 0.201246
0.62284 1.44652 0.208587
0.628445 1.44719 0.204431
0.461737 1.62989 0.113985
0.457841 1.63445 0.108434
0.410406 1.64372 0.00290238
0.51114 1.57806 0.164662
0.642958 1.59619 0.0684724
0.424627 1.28791 0.229437
0.496964 1.59565 0.151527
0.525701 1.64085 -0.103666
0.290829 1.60139 0.0688503
0.646955 1.39203 0.190349
0.255563 1.5536 0.0905443
0.26322 1.5659 0.103321
0.534071 1.63751 -0.109874
0.540096 1.63618 -0.114389
0.226402 1.54641 0.0281809
0.314088 1.51984 -0.141951
0.612963 1.46178 0.209204
0.295202 1.38995 0.113211
0.610658 1.23004 -0.0795824
0.59916 1.33029 0.209261
0.310038 1.38579 0.144494
0.659676 1.43834 -0.145105
0.670261 1.31862 -0.114997
0.62659 1.61884 0.00608337
0.258992 1.55411 0.0939314
0.323301 1.39043 0.156482
0.300209 1.34141 0.139258
0.65969 1.44086 -0.145579
0.660499 1.43462 -0.145136
0.316778 1.47288 -0.154542
0.297535 1.24068 0.115126
0.312787 1.22568 0.109454
0.502172 1.29818 -0.214068
0.603361 1.43924 0.212068
0.364947 1.25572 0.185311
0.445685 1.3017 0.241914
0.408535 1.5145 -0.208606
0.630845 1.61302 0.0204821
0.441555 1.29875 0.239894
0.510585 1.4438 0.247187
0.407677 1.21199 -0.1002
0.428269 1.29022 0.231333
0.443893 1.42623 0.252789
0.316767 1.46562 -0.155831
0.672349 1.29183 -0.106987
0.271589 1.25407 0.0242503
0.303574 1.38358 0.125598
0.490999 1.60086 0.14596
0.30511 1.3838 0.132006
0.315558 1.42105 -0.152233
0.419659 1.28471 0.227104
0.33605 1.42883 -0.168501
0.468906 1.43186 0.254919
0.625053 1.47916 0.202474
0.375036 1.19792 0.0781867
0.237123 1.55658 0.0595171
0.266475 1.57063 0.0875857
0.29834 1.39127 0.119478
0.478748 1.18916 -0.0179462
0.588158 1.24794 0.144845
0.458047 1.66433 -0.0597478
0.499879 1.34196 0.262769
0.491003 1.43838 0.252936
0.45185 1.18658 0.0433078
0.541933 1.44277 0.238557
0.595946 1.26419 0.163126
0.594639 1.26021 0.158923
0.649379 1.47115 -0.138748
0.29936 1.23569 0.108955
0.318344 1.2376 0.139642
0.303232 1.29299 0.12888
0.286079 1.23614 0.0812217
0.296946 1.23684 0.102424
0.274071 1.57629 0.0843205
0.502372 1.58992 0.155784
0.351017 1.40935 -0.173056
0.312273 1.22884 0.112203
0.279082 1.32185 -0.0724698
0.323947 1.20684 0.0979003
0.382945 1.26494 0.198164
0.568877 1.21408 -0.0519575
0.328356 1.20317 0.0949924
0.638101 1.25437 -0.120854
0.448111 1.44069 -0.230487
0.322592 1.23918 0.144478
0.273062 1.24942 0.0376831
0.653813 1.3839 0.185019
0.376937 1.63137 -0.0447692
0.308124 1.23639 0.123976
0.253202 1.38575 -0.000286877
0.530262 1.63915 -0.107124
0.36196 1.19716 0.0806876
0.254523 1.38531 0.00887573
0.296797 1.40674 -0.124689
0.642546 1.25524 -0.11294
0.461765 1.32233 -0.215833
0.293392 1.35911 -0.110265
0.666767 1.33324 -0.118701
0.583354 1.43951 0.212199
0.421442 1.20315 -0.0792199
0.523819 1.2886 -0.206779
0.252879 1.38728 -0.017208
0.424857 1.65063 0.053263
0.468776 1.18053 0.0221261
0.442277 1.19468 -0.0540147
0.440085 1.1953 -0.0566378
0.515652 1.19085 0.0295817
0.445687 1.18773 0.0481789
0.54431 1.20268 0.0663559
0.639269 1.25096 -0.0952397
0.664239 1.37026 -0.132769
0.483577 1.32887 0.259245
0.351425 1.30617 -0.167845
0.506262 1.44237 0.248319
0.55232 1.20475 -0.0419041
0.488643 1.19825 7.66367e-05
0.456704 1.19224 -0.0379522
0.248219 1.48348 -0.0825451
0.585089 1.46763 0.214337
0.252886 1.38788 -0.0255368
0.529023 1.18615 -0.0269333
0.256574 1.38504 0.0163735
0.449388 1.19429 -0.0449485
0.342251 1.33479 -0.174512
0.541713 1.49835 0.249512
0.409918 1.64381 0.00449635
0.55552 1.6302 -0.130749
0.672691 1.29694 -0.108705
0.253766 1.38856 -0.0332535
0.664443 1.34516 -0.122106
0.563348 1.62798 -0.134744
0.554576 1.27652 -0.19427
0.67533 1.276 -0.0156642
0.403676 1.21502 -0.105795
0.426484 1.20147 -0.0738241
0.381913 1.23846 -0.133698
0.630323 1.491 0.195837
0.47457 1.1907 -0.0230278
0.470884 1.58117 -0.194882
0.487321 1.19857 0.000705898
0.538632 1.19894 0.056726
0.283456 1.40159 -0.103722
0.354044 1.29907 -0.165413
0.284157 1.23793 0.0755156
0.289071 1.23662 0.0865546
0.310782 1.42744 -0.146361
0.346289 1.32081 -0.17171
0.574247 1.43285 0.227839
0.647705 1.47116 -0.139872
0.403929 1.64692 -0.00893256
0.35636 1.29188 -0.163384
0.277276 1.31521 -0.0643152
0.224546 1.54415 0.0207488
0.250536 1.48134 -0.0849206
0.277706 1.39965 -0.095252
0.526661 1.64039 -0.104323
0.330877 1.63322 0.0375642
0.327205 1.39639 -0.170336
0.327562 1.39549 -0.170715
0.647781 1.44891 0.184674
0.371483 1.46474 -0.202072
0.344243 1.41436 -0.170073
0.31433 1.21883 0.105662
0.371298 1.40473 0.200728
0.323926 1.41182 -0.165593
0.300797 1.37685 -0.122911
0.32364 1.41158 -0.164285
0.323644 1.4114 -0.164412
0.358839 1.43118 -0.185275
0.282651 1.45305 -0.119344
0.561907 1.2174 0.0989784
0.288278 1.40325 -0.109997
0.337534 1.34794 -0.173922
0.684911 1.32027 0.108426
0.457664 1.44154 -0.231633
0.442664 1.54242 0.232516
0.650551 1.46937 -0.136553
0.376435 1.40682 0.205279
0.438316 1.43854 -0.227149
0.361622 1.62208 -0.0655419
0.568722 1.47583 0.240291
0.314256 1.41641 -0.150819
0.272777 1.29223 -0.036046
0.320926 1.41494 -0.154869
0.318198 1.41391 -0.151946
0.275081 1.39875 -0.091507
0.314844 1.42263 -0.150963
0.286035 1.40246 -0.107089
0.313341 1.42532 -0.149036
0.56052 1.20973 -0.0470019
0.262294 1.46263 0.127944
0.275403 1.45949 -0.111777
0.651029 1.46869 -0.135039
0.326982 1.40214 -0.167952
0.569323 1.40959 0.239067
0.557688 1.63194 -0.130486
0.326074 1.40267 -0.168773
0.246116 1.48546 -0.0801573
0.301744 1.23535 0.114519
0.322022 1.41025 -0.159335
0.261905 1.39311 -0.0624583
0.433897 1.54484 0.228808
0.664142 1.37487 -0.134273
0.34654 1.4302 -0.177879
0.545333 1.2794 -0.198423
0.600693 1.41172 0.220783
0.513359 1.29317 -0.210592
0.544769 1.44991 -0.223457
0.63524 1.46206 -0.170134
0.286154 1.45046 -0.122766
0.661304 1.26986 -0.100847
0.383514 1.38215 -0.190173
0.535505 1.19771 0.0531876
0.526302 1.19331 0.0420574
0.314129 1.23655 0.133327
0.516176 1.18341 -0.0180018
0.454027 1.18625 0.04133
0.379393 1.55863 0.202715
0.318427 1.21366 0.102463
0.647119 1.26368 -0.0984569
0.630318 1.4609 -0.175874
0.649043 1.26558 -0.0989599
0.298902 1.43838 -0.134083
0.498304 1.18772 -0.00568962
0.270654 1.39721 -0.0829696
0.229737 1.50267 -0.0553109
0.664171 1.34874 -0.123736
0.473553 1.17968 0.0157523
0.475344 1.18049 0.0130397
0.532619 1.19593 0.0488521
0.616084 1.54065 -0.146855
0.299573 1.27279 0.122326
0.349195 1.31326 -0.170328
0.706184 1.46223 0.0595553
0.646527 1.58245 0.0949405
0.498074 1.19076 0.0109085
0.262702 1.47281 0.125829
0.613326 1.62906 -0.0364454
0.281871 1.56806 0.126067
0.297096 1.36804 -0.117098
0.611345 1.63085 -0.0438931
0.676887 1.45439 0.138677
0.433094 1.42267 0.248341
0.272026 1.26205 0.011354
0.486804 1.33124 0.260105
0.672159 1.27457 -0.0245055
0.678163 1.28042 0.000851393
0.297731 1.25678 0.119639
0.417318 1.43583 -0.219635
0.512921 1.56673 0.171612
0.294641 1.40608 -0.121171
0.626696 1.41502 0.200575
0.491175 1.19637 -0.00144067
0.483179 1.19019 -0.00971186
0.501215 1.19 0.0144292
0.558202 1.21553 0.0937408
0.547387 1.20528 0.0704374
0.55028 1.20703 0.0756959
0.648724 1.46828 -0.139833
0.574916 1.48643 0.211155
0.449566 1.30452 0.243728
0.569462 1.43224 0.230673
0.584669 1.24404 0.141088
0.508905 1.19052 0.0220711
0.512018 1.51501 0.252028
0.591443 1.45358 0.215125
0.404892 1.41616 0.231085
0.590211 1.4564 0.215139
0.428183 1.42194 0.245757
0.455938 1.18546 0.0393305
0.485241 1.19156 -0.00267577
0.226161 1.509 -0.0440172
0.570588 1.4921 0.208359
0.45462 1.19264 -0.0403547
0.264299 1.48321 0.123133
0.583686 1.43921 0.212298
0.65373 1.25875 -0.0884992
0.701129 1.46598 -0.0359989
0.602472 1.43995 0.212625
0.306037 1.38465 0.137816
0.27051 1.57486 0.0850394
0.276536 1.24565 0.0497194
0.308662 1.38522 0.142122
0.572842 1.48922 0.209922
0.575849 1.21682 -0.056702
0.5328 1.54429 0.186834
0.585395 1.43075 0.225411
0.305731 1.38407 0.134335
0.581759 1.43524 0.222229
0.656878 1.26083 -0.0794734
0.330896 1.42836 -0.164009
0.297088 1.2516 0.118586
0.581382 1.42544 0.227679
0.559582 1.43457 0.23357
0.583608 1.42805 0.227044
0.604505 1.42796 0.213394
0.636703 1.51169 -0.149936
0.604436 1.42857 0.213338
0.579102 1.21779 -0.0588553
0.320998 1.57702 -0.116735
0.608267 1.43345 0.209765
0.610101 1.45838 0.209233
0.459136 1.42935 0.254626
0.686827 1.31191 0.0956773
0.40441 1.65612 -0.00726843
0.326993 1.39755 -0.169919
0.478658 1.53044 0.245547
0.660748 1.41935 -0.142327
0.561508 1.50628 0.203137
0.614257 1.42771 0.206481
0.640439 1.51972 0.172573
0.599141 1.30956 0.197846
0.365546 1.43132 -0.190764
0.299561 1.39168 0.121375
0.527867 1.55001 0.183576
0.336049 1.39502 0.167865
0.683115 1.4663 -0.0862679
0.689908 1.45717 0.110193
0.293664 1.44382 -0.129893
0.548187 1.63582 -0.12214
0.615498 1.62805 -0.0299008
0.370493 1.19855 0.0792381
0.645402 1.58698 0.0861098
0.354135 1.39943 0.185494
0.597466 1.4412 0.2155
0.316604 1.41752 -0.153826
0.601889 1.44039 0.213121
0.486657 1.4372 0.252887
0.502949 1.44123 0.249382
0.253767 1.47885 -0.0881222
0.561073 1.39999 0.245192
0.343895 1.32845 -0.173026
0.633206 1.25415 -0.12892
0.316764 1.45252 -0.158687
0.548344 1.43924 0.237187
0.691813 1.46605 -0.066353
0.528479 1.63977 -0.105676
0.437784 1.19596 -0.0593551
0.603229 1.42914 0.213912
0.671058 1.31562 -0.11435
0.544925 1.4407 0.237103
0.662794 1.40171 -0.139872
0.423988 1.53282 -0.207738
0.673121 1.4536 0.146962
0.4385 1.42404 0.251064
0.323654 1.58008 -0.113993
0.575378 1.45379 -0.213299
0.386746 1.26694 0.20121
0.599952 1.40212 0.221673
0.267597 1.5177 0.11384
0.585362 1.45462 -0.208882
0.441024 1.18868 0.0513533
0.399186 1.41547 0.227811
0.580638 1.44291 0.216221
0.581451 1.4742 0.213337
0.271895 1.25821 0.0173993
0.557864 1.43513 0.234626
0.408576 1.64632 -0.0055719
0.285568 1.38757 0.093083
0.416618 1.54946 0.220676
0.678606 1.46723 -0.0971423
0.570699 1.43224 0.229861
0.672711 1.29976 -0.109657
0.611373 1.54684 -0.145742
0.39523 1.64364 -0.0191793
0.222116 1.53708 0.00517921
0.574589 1.60889 -0.139133
0.311891 1.22951 0.113112
0.576128 1.41902 0.232718
0.543595 1.63604 -0.117392
0.604042 1.42822 0.213644
0.520344 1.64365 -0.100572
0.37944 1.19798 0.077505
0.518219 1.6448 -0.099268
0.413759 1.19242 0.0660409
0.484449 1.19117 -0.00719464
0.646732 1.4714 -0.140968
0.273023 1.46172 -0.108842
0.38368 1.63571 -0.0358038
0.417262 1.6459 -0.00236148
0.685451 1.30487 0.0788901
0.401295 1.50478 -0.208357
0.463324 1.1903 -0.0328817
0.599635 1.31706 0.201868
0.600162 1.26014 -0.166439
0.520372 1.18329 -0.0215184
0.220698 1.53095 -0.00304103
0.616241 1.23447 -0.0829596
0.418746 1.19198 0.0637597
0.502572 1.44538 -0.233051
0.399013 1.36857 -0.199067
0.430705 1.19887 -0.0680762
0.528491 1.6187 -0.155629
0.432188 1.19803 -0.0660889
0.638946 1.5139 0.177878
0.400388 1.6455 -0.0121302
0.385717 1.2334 -0.128833
0.479333 1.61059 0.135313
0.397852 1.64658 -0.00519145
0.471849 1.19073 -0.0243285
0.474585 1.61473 0.130085
0.707318 1.46353 0.0400764
0.680635 1.33703 0.136955
0.467964 1.66081 -0.0647752
0.447389 1.66638 -0.0532699
0.427606 1.43672 -0.223275
0.587739 1.63686 -0.0942359
0.704785 1.46603 -0.0204802
0.315727 1.2164 0.10433
0.231835 1.55177 0.0439193
0.428354 1.65098 0.0594734
0.682996 1.32877 0.12316
0.290453 1.35221 -0.103062
0.57198 1.47041 0.236431
0.393207 1.41305 0.221862
0.258691 1.39135 -0.0540078
0.463193 1.57333 -0.198128
0.437669 1.18949 0.0534243
0.262533 1.38493 0.0409281
0.269797 1.38548 0.0628596
0.629065 1.41265 0.199617
0.694231 1.45867 0.100549
0.518089 1.18309 -0.0198532
0.578779 1.42243 0.229604
0.302908 1.56811 0.147022
0.287598 1.56767 0.13265
0.596363 1.44301 0.215264
0.681955 1.33305 0.129774
0.5967 1.27128 0.168941
0.443963 1.19426 -0.0517598
0.522775 1.64256 -0.102126
0.309282 1.41085 -0.139359
0.358003 1.64404 0.016167
0.47468 1.18009 0.0143291
0.39494 1.64672 -0.00414372
0.289887 1.38889 0.103773
0.412453 1.64726 0.0150312
0.649331 1.46828 -0.137916
0.409726 1.64389 0.0057154
0.598823 1.35089 0.216458
0.578923 1.59722 -0.137667
0.255918 1.47738 -0.0903918
0.591973 1.26287 -0.17341
0.443978 1.33467 -0.213065
0.672389 1.307 -0.111908
0.26054 1.54344 0.100735
0.460881 1.19033 -0.0340977
0.289963 1.44815 -0.125515
0.624877 1.52861 -0.148406
0.588274 1.58069 -0.139598
0.310872 1.22988 0.113735
0.290878 1.40418 -0.113388
0.293169 1.40533 -0.117489
0.598548 1.27647 0.172268
0.667085 1.26861 -0.0460312
0.411019 1.64647 -0.00410104
0.333957 1.59615 -0.0999989
0.487542 1.52701 0.248116
0.414021 1.64667 -0.00295052
0.553142 1.51466 0.199632
0.598752 1.56376 -0.142395
0.362951 1.45124 -0.195934
0.416099 1.28275 0.224825
0.496914 1.52288 0.250065
0.407352 1.55237 0.21699
0.37347 1.62957 -0.0492291
0.338601 1.56436 0.176186
0.267114 1.46656 -0.102856
0.312796 1.38651 0.147476
0.656361 1.26941 -0.0982871
0.48615 1.19868 0.0012296
0.268325 1.56671 0.111306
0.514297 1.44659 -0.230829
0.306911 1.39396 -0.136062
0.621772 1.23821 -0.0861677
0.639688 1.5065 -0.149767
0.482326 1.18984 -0.0120069
0.389736 1.37649 -0.194368
0.646348 1.47235 -0.141997
0.645883 1.54354 0.149149
0.413261 1.6582 -0.0181334
0.317195 1.48041 -0.152342
0.267414 1.38503 0.0559505
0.480792 1.44301 -0.232294
0.279155 1.38664 0.0820402
0.415759 1.52294 -0.207593
0.441152 1.55026 -0.203577
0.480031 1.18023 0.00702733
0.641924 1.4477 0.18982
0.432627 1.54174 -0.206085
0.484685 1.59236 -0.187977
0.297351 1.24706 0.117179
0.583121 1.23964 0.1355
0.315952 1.38783 0.1507
0.448777 1.4269 0.254342
0.320004 1.38922 0.153081
0.579435 1.47891 0.213104
0.512179 1.35108 0.264352
0.648656 1.46515 -0.152135
0.323135 1.42797 -0.155766
0.432228 1.65066 0.0657335
0.46157 1.31356 0.25005
0.291723 1.23708 0.0920371
0.643991 1.59084 0.0777015
0.372963 1.43163 -0.194928
0.307135 1.4102 -0.136846
0.381881 1.40841 0.209389
0.388769 1.55705 0.208188
0.599807 1.63684 -0.0738158
0.318239 1.57229 -0.119627
0.664093 1.38673 -0.137729
0.65602 1.46817 -0.130903
0.340991 1.41325 -0.165044
0.42857 1.2001 -0.0710239
0.329929 1.565 0.168885
0.302167 1.28828 0.127057
0.549346 1.52013 0.197445
0.522408 1.44597 0.243653
0.485849 1.19165 -0.00302947
0.469573 1.61855 0.124567
0.358192 1.40391 -0.176419
0.594366 1.45574 -0.204079
0.357163 1.25241 0.177087
0.263052 1.39371 -0.0661658
0.422487 1.65136 0.0471601
0.276437 1.58066 0.0825523
0.318972 1.43247 -0.150948
0.536824 1.37373 0.259835
0.327739 1.3918 0.160312
0.30912 1.40106 -0.140962
0.328994 1.3904 -0.170943
0.370731 1.39368 -0.183681
0.491518 1.4441 -0.232362
0.311557 1.41148 -0.141825
0.569911 1.61691 -0.137683
0.313044 1.41204 -0.144038
0.378506 1.26232 0.19543
0.451926 1.53953 0.235641
0.282446 1.33059 -0.0809647
0.599488 1.36257 0.21903
0.567949 1.63366 -0.11857
0.506924 1.64941 -0.0916479
0.60018 1.28015 0.175831
0.391455 1.19632 0.0745886
0.468764 1.31887 0.253047
0.483401 1.18067 0.00410295
0.316527 1.49352 -0.149182
0.601414 1.29204 0.184833
0.60123 1.28553 0.180502
0.302151 1.32351 0.137098
0.332051 1.39323 0.164134
0.301143 1.43643 -0.135837
0.469528 1.53376 0.242473
0.283813 1.59187 0.0752729
0.26212 1.56134 0.0880676
0.261691 1.56008 0.0887322
0.282309 1.23983 0.0693359
0.27113 1.26492 0.00513077
0.28053 1.24219 0.062142
0.529458 1.19398 0.0454297
0.410681 1.64377 0.00388368
0.426371 1.54657 0.224802
0.403753 1.27635 0.21418
0.481463 1.19018 -0.0138343
0.301907 1.27713 0.123411
0.34974 1.19436 0.0837342
0.312433 1.42644 -0.148101
0.472218 1.17945 0.0170949
0.471439 1.65985 -0.0668329
0.311546 1.2371 0.127753
0.523074 1.36105 0.262829
0.664111 1.35729 -0.127452
0.649176 1.46608 -0.147953
0.2805 1.58664 0.078455
0.599602 1.32412 0.205387
0.434938 1.6487 0.0711795
0.647372 1.47308 -0.141347
0.321062 1.56523 0.1609
0.387402 1.40937 0.21349
0.583044 1.47136 0.213782
0.392853 1.64209 -0.0224689
0.261452 1.45426 0.129678
0.415562 1.64602 -0.00217375
0.274161 1.38569 0.0702508
0.241595 1.55726 0.0674614
0.331205 1.37913 -0.17349
0.632537 1.51766 -0.14941
0.67301 1.28591 -0.106388
0.263814 1.53136 0.1079
0.296207 1.39047 0.114984
0.341156 1.42939 -0.172706
0.551841 1.63557 -0.12636
0.266371 1.49247 0.120888
0.275043 1.30684 -0.0549586
0.380635 1.4322 -0.198696
0.598158 1.22476 -0.0716186
0.334724 1.36155 -0.174577
0.476384 1.18944 -0.0211888
0.374629 1.24817 -0.143139
0.497241 1.19077 0.00992882
0.636239 1.60914 0.0362322
0.621563 1.25526 -0.144654
0.607323 1.43475 0.210235
0.26386 1.46929 -0.100069
0.707928 1.46521 0.00332129
0.659418 1.46762 -0.12661
0.272195 1.25142 0.0308746
0.220819 1.52678 -0.0106079
0.330498 1.24202 0.151938
0.268018 1.50074 0.118983
0.620019 1.42138 0.202324
0.592662 1.25612 0.154315
0.397669 1.43364 -0.210495
0.313822 1.54368 -0.13321
0.577251 1.4827 0.21223
0.33664 1.35524 -0.17441
0.676986 1.27774 -0.00724328
0.235645 1.49569 -0.0650677
0.389115 1.48774 -0.205805
0.3027 1.40843 -0.129959
0.399573 1.27388 0.211373
0.265256 1.38502 0.0484811
0.469196 1.18031 0.0211332
0.29975 1.40754 -0.127646
0.364143 1.39895 -0.180403
0.299808 1.61202 0.0607042
0.410935 1.20972 -0.0944903
0.671948 1.35474 0.1611
0.662186 1.45196 0.163039
0.233342 1.5541 0.0520806
0.525188 1.44759 -0.228229
0.696117 1.45953 0.090112
0.301809 1.39281 0.124767
0.268098 1.39572 -0.0772846
0.624651 1.45964 -0.181643
0.541513 1.20072 0.0613366
0.550369 1.43842 0.236903
0.619599 1.62537 -0.0168699
0.312943 1.22761 0.110673
0.439056 1.64733 0.0776355
0.389813 1.63977 -0.0268997
0.317387 1.56583 -0.122268
0.266291 1.39497 -0.073765
0.629043 1.61617 0.0137021
0.50497 1.1904 0.0186766
0.542126 1.62387 -0.142932
0.371521 1.25384 -0.146623
0.299147 1.26032 0.120358
0.303396 1.38321 0.12346
0.501912 1.65072 -0.0877559
0.297157 1.24422 0.116242
0.491831 1.19508 -0.00183351
0.34204 1.41455 -0.166264
0.537243 1.53812 0.18924
0.285182 1.33771 -0.0879906
0.316065 1.56043 -0.125238
0.407175 1.36229 -0.201581
0.558548 1.50927 0.201913
0.309268 1.42839 -0.144188
0.308736 1.62027 0.0538954
0.336697 1.63644 0.0327181
0.669929 1.27022 -0.038265
0.469751 1.4422 -0.232178
0.40962 1.64602 -0.00476617
0.410299 1.64605 -0.00435942
0.468548 1.19036 -0.028785
0.384724 1.19763 0.0765205
0.352626 1.25018 0.173156
0.317287 1.41648 -0.154003
0.334419 1.24241 0.157954
0.574413 1.23017 0.120543
0.686142 1.30124 0.0704811
0.314106 1.52664 -0.139785
0.599692 1.43629 0.215016
0.595924 1.63722 -0.0814353
0.287015 1.59524 0.0729507
0.403965 1.19434 0.0705046
0.698921 1.46572 -0.0436304
0.283759 1.38718 0.0875849
0.417846 1.64625 -0.00269005
0.358592 1.28505 -0.160762
0.579856 1.23642 0.13116
0.453889 1.42785 0.255103
0.303766 1.38479 -0.129402
0.657382 1.46788 -0.129843
0.477984 1.17952 0.00923333
0.662428 1.26468 -0.0630304
0.523484 1.19298 0.0376145
0.41775 1.65152 0.0321361
0.26018 1.3848 0.033075
0.417897 1.20547 -0.0855744
0.377611 1.4717 -0.20315
0.424285 1.34896 -0.207468
0.633728 1.61137 0.0281367
0.325442 1.40357 -0.169178
0.280824 1.40064 -0.0997793
0.389087 1.2299 -0.124249
0.333329 1.3737 -0.174529
0.36506 1.40316 0.195394
0.27335 1.29932 -0.0467798
0.667829 1.4676 -0.116849
0.272892 1.29566 -0.0415682
0.304581 1.23564 0.119462
0.667219 1.3289 -0.11715
0.535466 1.44885 -0.22598
0.316886 1.45929 -0.157316
0.464069 1.43071 0.254998
0.413187 1.64846 0.0184801
0.276214 1.38579 0.0762756
0.517906 1.19189 0.0323063
0.453355 1.32838 -0.213968
0.47046 1.17964 0.0189839
0.679407 1.28297 0.00944543
0.415147 1.35594 -0.204198
0.34767 1.60933 -0.0840875
0.546099 1.20043 -0.0378063
0.500512 1.18536 -0.00711799
0.340521 1.60291 -0.0923827
0.561917 1.27353 -0.19236
0.259396 1.55849 0.0909731
0.274227 1.56755 0.118613
0.530546 1.44588 0.241342
0.388844 1.43301 -0.20604
0.314827 1.51251 -0.143722
0.504271 1.65009 -0.0895406
0.299102 1.23741 0.112334
0.641893 1.52506 0.167531
0.665016 1.46751 -0.120395
0.418009 1.66035 -0.0243609
0.315958 1.49994 -0.14729
0.314379 1.62419 0.0497376
0.255461 1.3894 -0.0409631
0.270389 1.46389 -0.106026
0.55637 1.39413 0.249708
0.274828 1.24734 0.0443629
0.3804 1.63365 -0.0402829
0.228085 1.50612 -0.0494533
0.635431 1.25009 -0.0932132
0.671257 1.46671 -0.108281
0.420631 1.65084 0.0419261
0.270436 1.27705 -0.0151818
0.649762 1.4905 -0.149929
0.669272 1.3598 0.166436
0.22342 1.54052 0.0125127
0.516178 1.35375 0.264159
0.583511 1.2656 -0.179363
0.465161 1.31628 0.251548
0.315527 1.41298 -0.147857
0.66423 1.36433 -0.130499
0.703481 1.46148 0.0694629
0.484926 1.60568 0.140155
0.307215 1.42933 -0.141791
0.511297 1.19044 0.0247388
0.353338 1.64205 0.0201219
0.252366 1.38626 -0.00862509
0.259444 1.54865 0.0974384
0.37753 1.38782 -0.186592
0.366102 1.26535 -0.153336
0.341033 1.39613 0.172296
0.280588 1.45483 -0.117281
0.674023 1.3502 0.155694
0.344062 1.60635 -0.0880418
0.492862 1.19302 -0.00262617
0.32291 1.41606 -0.157163
0.490077 1.65318 -0.07849
0.627799 1.25427 -0.136812
0.620689 1.53435 -0.147662
0.549369 1.63566 -0.123258
0.659822 1.37448 0.179055
0.398055 1.55501 0.213123
0.601972 1.3036 0.192739
0.427426 1.19105 0.0594348
0.631796 1.40989 0.198391
0.568864 1.62038 -0.138073
0.410127 1.41842 0.234921
0.555582 1.2123 0.0883404
0.272758 1.39793 -0.0873816
0.661722 1.46713 -0.123114
0.327283 1.42625 -0.156529
0.336691 1.19885 0.0907189
0.32232 1.20904 0.0994897
0.407141 1.27831 0.216809
0.349419 1.39873 0.180313
0.398209 1.64458 -0.0153089
0.590709 1.22119 -0.0666114
0.641706 1.59918 0.0612436
0.297297 1.39099 0.117227
0.412015 1.64579 0.0111974
0.367799 1.25675 0.187913
0.377452 1.64847 0.00243545
0.565496 1.45259 -0.216696
0.503459 1.3448 0.263353
0.393009 1.22551 -0.119228
0.470303 1.19003 -0.0263992
0.591208 1.25168 0.148627
0.643068 1.46382 -0.160931
0.404412 1.65628 -0.00781023
0.229343 1.54913 0.0356528
0.63995 1.46283 -0.164806
0.434336 1.34161 -0.210532
0.549016 1.62756 -0.137035
0.581 1.45213 0.224991
0.352704 1.43075 -0.181571
0.498844 1.44018 0.251003
0.639068 1.40114 0.194981
0.345145 1.39735 0.176422
0.646336 1.4717 -0.141747
0.541943 1.53196 0.192771
0.556476 1.63233 -0.129514
0.598589 1.43891 0.215432
0.271799 1.28825 -0.0310914
0.328849 1.39364 -0.170287
0.25908 1.38505 0.0244641
0.407349 1.43478 -0.215883
0.359387 1.40098 0.190413
0.645409 1.26003 -0.09816
0.668326 1.32447 -0.116142
0.465654 1.66174 -0.0635761
0.599088 1.34511 0.213841
0.507614 1.58423 0.159781
0.498601 1.60116 -0.178427
0.482128 1.43587 0.253218
0.548889 1.20281 -0.0396287
0.481012 1.19037 -0.0151921
0.602807 1.45122 0.2096
0.292017 1.44597 -0.127752
0.484358 1.1806 0.00316858
0.520651 1.19272 0.0343841
0.453382 1.6383 0.101814
0.302449 1.31763 0.136156
0.656519 1.45077 0.170422
0.685364 1.45567 0.119544
0.601862 1.29851 0.188366
0.46416 1.66238 -0.0630392
0.423821 1.20266 -0.076773
0.292627 1.38931 0.107436
0.257024 1.39031 -0.0475641
0.446707 1.19439 -0.0478922
0.537637 1.63613 -0.112395
0.320533 1.21124 0.100955
0.261737 1.53763 0.104388
0.305039 1.40943 -0.133763
0.682141 1.28909 0.0355318
0.458647 1.19111 -0.0358965
0.609525 1.43183 0.208797
0.561328 1.43423 0.233022
0.29606 1.60747 0.0639789
0.323681 1.41074 -0.164463
0.64767 1.56548 0.11999
0.395332 1.4959 -0.206642
0.658662 1.46779 -0.128068
0.303512 1.30376 0.132975
0.398027 1.19529 0.0725727
0.627351 1.48479 0.19889
0.303888 1.38348 0.12998
0.680682 1.45469 0.13007
0.647363 1.577 0.103999
0.660193 1.26227 -0.0714186
0.231857 1.4988 -0.060361
0.372408 1.6479 0.00533462
0.313921 1.53811 -0.135417
0.368436 1.25984 -0.150486
0.296046 1.44078 -0.132525
0.314443 1.41254 -0.146129
0.598884 1.38358 0.221873
0.423312 1.19179 0.0615816
0.621441 1.62341 -0.010538
0.699598 1.46057 0.0790633
0.571887 1.21529 -0.0539882
0.476695 1.65814 -0.0701925
0.245228 1.5581 0.0738718
0.682565 1.29225 0.0437919
0.555617 1.45092 -0.219622
0.339573 1.34136 -0.17376
0.294753 1.56798 0.139381
0.600575 1.44178 0.214572
0.487191 1.65407 -0.0765027
0.50226 1.18997 0.0156231
0.325717 1.58387 -0.110762
0.443648 1.66722 -0.0512272
0.304204 1.29679 0.1311
0.414507 1.20807 -0.0902003
0.302525 1.31201 0.134593
0.435115 1.19677 -0.0624763
0.466915 1.19091 -0.0309382
0.325101 1.40459 -0.169135
0.397037 1.22094 -0.113633
0.470473 1.31639 -0.216461
0.28787 1.34534 -0.0959532
0.565327 1.21281 -0.0497435
0.449122 1.64084 0.0949062
0.628758 1.52229 -0.148528
0.535786 1.63671 -0.111
0.685732 1.29776 0.0612436
0.358812 1.44633 -0.193482
0.353484 1.19455 0.0824979
0.278365 1.24441 0.0545899
0.522983 1.55551 0.179301
0.358383 1.56175 0.189257
0.517756 1.56098 0.175346
0.460778 1.53675 0.239549
0.448615 1.66604 -0.053745
0.508273 1.57209 0.167972
0.361146 1.25415 0.18137
0.351024 1.61275 -0.080005
0.52171 1.61531 -0.161573
0.322606 1.42962 -0.152748
0.664138 1.36119 -0.129102
0.411269 1.64448 0.00743114
0.680418 1.28556 0.0182668
0.67854 1.3413 0.143376
0.340599 1.19721 0.0886314
0.386799 1.6377 -0.031303
0.412338 1.64671 -0.00332284
0.601142 1.40673 0.221369
0.477906 1.43447 0.253943
0.583652 1.58891 -0.139448
0.664971 1.26635 -0.0543834
0.513434 1.18324 -0.0160732
0.36351 1.27229 -0.156239
0.26603 1.52417 0.111265
0.499495 1.18626 -0.0062955
0.418346 1.65141 0.0370172
0.315103 1.50609 -0.14548
0.506746 1.60649 -0.172341
0.642942 1.25415 -0.097175
0.573519 1.63426 -0.1124
0.465247 1.62529 0.119358
0.294048 1.23714 0.0970607
0.302561 1.28243 0.125451
0.222034 1.51889 -0.0254254
0.316073 1.41972 -0.153295
0.604417 1.22707 -0.0758442
0.327275 1.24094 0.148848
0.45337 1.30731 0.245502
0.299266 1.26559 0.12133
0.545715 1.63612 -0.119611
